0 0 0 0 0 0 0 0 0 0 0 0 0 0 0 0 0 0 0 0 0 0 0 0 0 0 0 0 0 0 0 0 0 0 0 0 0 0 0 0 0 0 0 0 0 0 0 0 0 0 0 0 0 0 0 0 0 0 0 0 0 0 0 0 0 0 0 0 0 0 0 0 0 0 0 0 0 0 0 0 0 0 0 0 0 0 0 0 0 0 0 0 0 0 0 0 0 0 0 0 0 0 0 0 0 0 0 0 0 0 0 0 0 0 0 0 0 0 0 0 0 0 0 0 0 0 0 0 0 0 0 0 0 0 0 0 0 0 0 0 0 0 0 0 0 0 0 0 1611 1602 1602 1594 1585 1577 1577 1561 1553 1553 1545 1537 1522 1514 1507 1500 1500 1485 1485 1478 1478 1471 1471 1471 1471 1471 1471 1463 1463 1463 1463 1463 1463 1463 1456 1456 1456 1456 1456 1456 1456 1456 1456 1456 1456 1463 1463 1463 1463 1463 1463 1463 1471 1471 1471 1471 1471 1471 1471 1471 1471 1471 1471 1471 1471 1471 1471 1471 1471 1471 1471 1471 1471 1478 1478 1478 1478 1478 1485 1485 1485 1492 1500 1500 1500 1507 1507 1507 1507 1514 1514 1522 1522 1522 1530 1530 1537 1537 1545 1553 1553 1561 1561 1569 1577 1594 1602 1611 1619 1637 1654 1663 1673 1682 1682 1682 1682 1682 1682 1682 1682 1682 1682 1682 1691 1691 1691 1701 1701 1710 1720 1730 1730 1740 1750 1750 1760 1760 1770 1770 1780 1780 1791 1801 1801 1801 1823 0 0 0 0 0 0 0 0 0 0 0 0 2175 2159 2144 2129 2114 2100 2100 2100 2100 2100 2100 2100 2100 2100 2100 2100 2100 2100 2085 2085 2085 2071 2057 2057 2030 1990 1951 1951 1939 1939 1939 1939 1927 1927 1927 1927 1927 1927 1927 1927 1927 1927 1927 1927 1927 1927 1927 1927 1927 1927 1927 1927 1927 1927 1915 1915 1915 1915 1915 1915 1903 1915 1915 1915 1915 1915 1915 1903 1903 1903 1903 1903 1903 1903 1903 1891 1891 1891 1891 1891 1891 1891 1903 1903 1891 1903 1915 1915 1915 1915 1939 0 0 0 0 1845 1845 1845 1845 1845 1845 1845 1834 1834 0 0 0 0 0 0 0 0 0 0 5342 5342 5342 5342 5342 5342 5342 5342 5342 5342 5250 5250 5250 5161 5161 5161 5075 5075 4991 4991 4757 4613 4544 4477 4413 4413 4350 4171 4060 4006 3903 3903 3854 3854 3854 3854 3854 3854 3806 3806 3806 3806 3854 3854 3854 3854 3854 3854 3854 3854 3854 3854 3854 3854 3806 3806 3806 3806 3806 3806 3806 3854 3854 3903 3903 3903 3954 4006 4060 4060 4114 4114 4171 4171 4229 4288 4413 0 0 0 0 0 0 0 0 0 4229 4114 4114 4114 4114 4171 4171 4229 4288 4288 4350 4350 4413 4413 4477 4477 4477 0 0 0 0 0 0 0 0 0 0 0 0 0 0 0 0 0 0 0 0 0 0 0 0 0 0 0 0 0 0 0 0 0 0 0 0 0 0 0 0 0 0 0 0 0 0 0 0 0 0 0 0 0 0 0 0 0 0 0 0 0 0 0 0 0 0 0 0 0 0 0 0 0 0 0 0 0 0 0 0 0 0 0 0 0 0 0 0 0 0 0 0 0 0 0 0 0 0 0 0 0 0 0 0 0 0 0 0 0 0 0 0 0 0 0 0
0 0 0 0 0 0 0 0 0 0 0 0 0 0 0 0 0 0 0 0 0 0 0 0 0 0 0 0 0 0 0 0 0 0 0 0 0 0 0 0 0 0 0 0 0 0 0 0 0 0 0 0 0 0 0 0 0 0 0 0 0 0 0 0 0 0 0 0 0 0 0 0 0 0 0 0 0 0 0 0 0 0 0 0 0 0 0 0 0 0 0 0 0 0 0 0 0 0 0 0 0 0 0 0 0 0 0 0 0 0 0 0 0 0 0 0 0 0 0 0 0 0 0 0 0 0 0 0 0 0 0 0 0 0 0 0 0 0 0 0 0 0 0 0 0 0 0 0 1611 1602 1602 1594 1585 1577 1577 1561 1553 1553 1545 1537 1522 1514 1507 1500 1485 1485 1478 1478 1478 1471 1471 1471 1471 1463 1463 1463 1463 1463 1463 1463 1463 1463 1456 1456 1456 1456 1456 1456 1456 1456 1456 1456 1456 1456 1456 1463 1463 1463 1463 1463 1463 1463 1463 1463 1463 1463 1463 1463 1463 1471 1471 1471 1471 1471 1471 1471 1471 1471 1471 1471 1471 1471 1478 1478 1478 1478 1478 1485 1485 1492 1492 1500 1500 1500 1507 1507 1507 1507 1514 1514 1522 1522 1530 1530 1537 1537 1545 1553 1553 1561 1561 1569 1577 1594 1602 1611 1619 1637 1654 1673 1682 1682 1682 1691 1691 1691 1691 1682 1682 1682 1691 1691 1691 1691 1701 1701 1701 1710 1720 1720 1730 1740 1740 1750 1760 1760 1770 1770 1780 1780 1791 1801 1801 1801 1812 1834 0 0 0 0 0 0 0 0 0 0 0 2175 2144 2114 2100 2085 2085 2085 2085 2085 2085 2085 2085 2085 2085 2085 2085 2085 2085 2085 2071 2071 2057 2043 2030 2003 1951 1951 1939 1939 1939 1939 1927 1927 1927 1927 1927 1927 1927 1927 1927 1927 1927 1927 1927 1927 1927 1927 1927 1927 1927 1915 1915 1915 1915 1915 1915 1903 1903 1903 1903 1903 1903 1903 1903 1903 1903 1903 1903 1903 1891 1891 1891 1891 1891 1891 1891 1891 1891 1891 1891 1891 1891 1891 1879 1879 1879 1891 1879 1879 1868 1868 1868 1868 1845 1845 1845 1845 1845 1845 1834 1834 1834 1834 1834 1834 1834 1834 0 0 0 0 0 0 0 0 5536 5342 5342 5342 5342 5342 5342 5342 5342 5342 5250 5250 5161 5161 5161 5075 5075 4991 4911 4684 4613 4477 4477 4413 4350 4288 4171 4060 3954 3903 3854 3854 3854 3854 3854 3854 3854 3854 3806 3806 3854 3854 3854 3854 3854 3854 3854 3806 3806 3806 3806 3806 3806 3806 3806 3806 3759 3759 3759 3806 3854 3854 3854 3903 3954 4006 4006 4060 4060 4114 4114 4171 4171 4229 4350 0 0 0 0 0 0 0 0 0 0 4229 4114 4114 4114 4114 4114 4171 4229 4229 4288 4288 4350 4413 4413 4477 4477 4477 4544 0 0 0 0 0 0 0 0 0 0 0 0 0 0 0 0 0 0 0 0 0 0 0 0 0 0 0 0 0 0 0 0 0 0 0 0 0 0 0 0 0 0 0 0 0 0 0 0 0 0 0 0 0 0 0 0 0 0 0 0 0 0 0 0 0 0 0 0 0 0 0 0 0 0 0 0 0 0 0 0 0 0 0 0 0 0 0 0 0 0 0 0 0 0 0 0 0 0 0 0 0 0 0 0 0 0 0 0 0 0 0 0 0 0 0
0 0 0 0 0 0 0 0 0 0 0 0 0 0 0 0 0 0 0 0 0 0 0 0 0 0 0 0 0 0 0 0 0 0 0 0 0 0 0 0 0 0 0 0 0 0 0 0 0 0 0 0 0 0 0 0 0 0 0 0 0 0 0 0 0 0 0 0 0 0 0 0 0 0 0 0 0 0 0 0 0 0 0 0 0 0 0 0 0 0 0 0 0 0 0 0 0 0 0 0 0 0 0 0 0 0 0 0 0 0 0 0 0 0 0 0 0 0 0 0 0 0 0 0 0 0 0 0 0 0 0 0 0 0 0 0 0 2043 2016 2016 0 0 0 0 0 0 0 0 1611 1611 1602 1594 1585 1577 1577 1561 1561 1553 1545 1537 1522 1514 1507 1500 1485 1485 1478 1478 1478 1471 1471 1471 1471 1463 1463 1463 1463 1463 1463 1463 1463 1463 1456 1456 1456 1456 1456 1456 1456 1456 1456 1456 1456 1456 1456 1456 1463 1463 1463 1463 1463 1463 1463 1463 1463 1463 1463 1463 1463 1463 1463 1471 1471 1471 1471 1471 1471 1471 1471 1471 1471 1471 1478 1478 1478 1478 1478 1485 1485 1492 1492 1500 1500 1500 1500 1507 1507 1507 1507 1514 1514 1522 1522 1530 1530 1537 1545 1545 1553 1561 1561 1569 1577 1594 1602 1611 1619 1637 1663 1682 1682 1691 1691 1691 1691 1691 1691 1691 1691 1691 1691 1691 1691 1701 1701 1701 1701 1710 1720 1720 1730 1730 1740 1750 1760 1760 1770 1770 1780 1780 1791 1791 1801 1801 1812 1823 1845 0 0 0 0 0 0 0 0 0 0 0 2129 2100 2071 2071 2071 2071 2071 2071 2071 2071 2071 2071 2071 2071 2071 2071 2057 2057 2057 2043 2043 2030 1990 1964 1951 1939 1939 1939 1939 1927 1927 1927 1927 1927 1927 1927 1927 1927 1927 1927 1927 1927 1927 1927 1915 1915 1915 1915 1915 1915 1915 1903 1903 1903 1903 1903 1891 1891 1891 1891 1891 1891 1891 1891 1891 1891 1891 1891 1891 1891 1891 1891 1891 1891 1879 1879 1879 1879 1879 1879 1879 1879 1879 1868 1868 1868 1868 1856 1845 1845 1845 1845 1845 1845 1845 1845 1845 1834 1834 1834 1834 1834 1834 1834 1834 1834 1834 1845 0 0 0 0 0 0 0 0 5536 5437 5437 5342 5342 5342 5342 5342 5250 5250 5250 5161 5161 5075 5075 4991 4911 4613 4544 4477 4413 4413 4350 4288 4114 4006 3954 3903 3854 3854 3854 3854 3854 3854 3854 3854 3854 3854 3854 3854 3854 3854 3854 3854 3806 3806 3806 3806 3806 3806 3806 3806 3806 3759 3759 3759 3759 3806 3806 3854 3854 3903 3903 3954 4006 4006 4060 4060 4114 4171 4171 4229 0 0 0 0 0 0 0 0 0 0 0 0 4171 4114 4060 4060 4114 4171 4229 4229 4288 4288 4350 4413 4413 4477 4477 4477 4477 0 0 0 0 0 0 0 0 0 0 0 0 0 0 0 0 0 0 0 0 0 0 0 0 0 0 0 0 0 0 0 0 0 0 0 0 0 0 0 0 0 0 0 0 0 0 0 0 0 0 0 0 0 0 0 0 0 0 0 0 0 0 0 0 0 0 0 0 0 0 0 0 0 0 0 0 0 0 0 0 0 0 0 0 0 0 0 0 0 0 0 0 0 0 0 0 0 0 0 0 0 0 0 0 0 0 0 0 0 0 0 0 0 0 0
0 0 0 0 0 0 0 0 0 0 0 0 0 0 0 0 0 0 0 0 0 0 0 0 0 0 0 0 0 0 0 0 0 0 0 0 0 0 0 0 0 0 0 0 0 0 0 0 0 0 0 0 0 0 0 0 0 0 0 0 0 0 0 0 0 0 0 0 0 0 0 0 0 0 0 0 0 0 0 0 0 0 0 0 0 0 0 0 0 0 0 0 0 0 0 0 0 0 0 0 0 0 0 0 0 0 0 0 0 0 0 0 0 0 0 0 0 0 0 0 0 0 0 0 0 0 0 0 0 0 0 0 0 0 0 2030 2030 2016 2003 2003 2003 2030 0 0 0 0 0 0 1611 1611 1602 1594 1585 1577 1577 1561 1561 1553 1545 1537 1522 1514 1507 1500 1485 1485 1478 1478 1471 1471 1471 1471 1463 1463 1463 1463 1463 1463 1463 1463 1463 1463 1456 1456 1456 1456 1456 1456 1456 1456 1456 1456 1456 1456 1456 1456 1456 1463 1463 1463 1463 1463 1463 1463 1463 1463 1463 1463 1463 1463 1463 1463 1471 1471 1471 1471 1471 1471 1471 1471 1471 1471 1478 1478 1478 1478 1478 1485 1485 1492 1492 1492 1500 1500 1500 1500 1507 1507 1507 1507 1514 1514 1522 1530 1530 1537 1545 1545 1553 1561 1561 1569 1577 1594 1602 1611 1619 1637 1663 1682 1691 1691 1701 1701 1701 1701 1701 1701 1701 1701 1701 1701 1701 1701 1701 1701 1701 1710 1720 1720 1730 1730 1740 1750 1750 1760 1760 1770 1780 1780 1791 1791 1801 1801 1812 1823 1834 1856 0 0 0 0 0 0 0 0 0 0 2100 2057 2057 2057 2057 2057 2057 2071 2071 2071 2071 2071 2071 2057 2057 2057 2043 2043 2030 2016 2003 1977 1951 1951 1939 1939 1939 1927 1927 1927 1927 1927 1927 1927 1927 1915 1915 1927 1927 1915 1915 1915 1915 1915 1915 1915 1915 1915 1903 1903 1891 1891 1891 1891 1891 1891 1891 1891 1879 1879 1879 1879 1879 1879 1879 1879 1879 1879 1879 1879 1879 1879 1879 1879 1879 1879 1879 1868 1868 1868 1868 1868 1868 1856 1856 1856 1856 1845 1845 1845 1845 1845 1845 1845 1845 1845 1834 1834 1834 1834 1834 1834 1823 1823 1823 1834 1834 1834 1834 0 0 0 0 0 0 0 0 5536 5536 5437 5437 5437 5342 5342 5342 5250 5250 5161 5161 5075 4991 4991 4684 4613 4544 4477 4413 4413 4350 4229 4114 4006 3903 3854 3854 3854 3854 3854 3854 3854 3854 3854 3854 3854 3854 3854 3854 3854 3854 3854 3806 3806 3806 3806 3806 3806 3806 3806 3759 3759 3759 3759 3759 3759 3806 3854 3854 3903 3903 3954 4006 4006 4060 4060 4114 4114 4171 4171 0 0 0 0 0 0 0 0 0 0 0 0 4171 4114 4060 4060 4114 4114 4171 4229 4288 4288 4350 4350 4413 4413 4477 4477 4477 4477 0 0 0 0 0 0 0 0 0 0 0 0 0 0 0 0 0 0 0 0 0 0 0 0 0 0 0 0 0 0 0 0 0 0 0 0 0 0 0 0 0 0 0 0 0 0 0 0 0 0 0 0 0 0 0 0 0 0 0 0 0 0 0 0 0 0 0 0 0 0 0 0 0 0 0 0 0 0 0 0 0 0 0 0 0 0 0 0 0 0 0 0 0 0 0 0 0 0 0 0 0 0 0 0 0 0 0 0 0 0 0 0 0 0
0 0 0 0 0 0 0 0 0 0 0 0 0 0 0 0 0 0 0 0 0 0 0 0 0 0 0 0 0 0 0 0 0 0 0 0 0 0 0 0 0 0 0 0 0 0 0 0 0 0 0 0 0 0 0 0 0 0 0 0 0 0 0 0 0 0 0 0 0 0 0 0 0 0 0 0 0 0 0 0 0 0 0 0 0 0 0 0 0 0 0 0 0 0 0 0 0 0 0 0 0 0 0 0 0 0 0 0 0 0 0 0 0 0 0 0 0 0 0 0 0 0 0 0 0 0 0 0 0 0 0 2043 2043 2043 2030 2030 2016 2003 2003 2003 2003 2003 2003 0 0 0 0 0 1611 1611 1602 1594 1594 1585 1577 1569 1561 1553 1545 1545 1530 1514 1507 1500 1485 1478 1478 1478 1471 1471 1471 1463 1463 1463 1463 1463 1463 1463 1463 1463 1463 1463 1456 1456 1456 1456 1456 1456 1456 1450 1450 1450 1450 1456 1456 1456 1456 1456 1456 1463 1463 1463 1463 1463 1463 1463 1463 1463 1463 1463 1463 1463 1463 1471 1471 1471 1471 1471 1471 1471 1471 1471 1478 1478 1478 1478 1478 1485 1485 1485 1492 1492 1500 1500 1500 1500 1500 1507 1507 1507 1514 1514 1522 1522 1530 1537 1545 1545 1553 1561 1561 1569 1577 1594 1602 1611 1619 1637 1673 1682 1701 1701 1710 1710 1710 1710 1710 1710 1710 1701 1701 1701 1701 1701 1701 1701 1710 1710 1720 1720 1730 1730 1740 1750 1750 1760 1760 1770 1780 1780 1791 1791 1801 1801 1812 1823 1834 1856 1868 0 0 0 0 0 0 0 0 2085 2030 1990 1990 1990 2030 2043 2043 2043 2057 2057 2057 2057 2057 2043 2043 2016 2003 2003 1990 1964 1951 1951 1951 1939 1939 1939 1927 1927 1927 1927 1927 1915 1915 1915 1915 1915 1915 1915 1915 1915 1915 1915 1915 1915 1915 1915 1903 1891 1891 1891 1879 1879 1879 1879 1879 1879 1879 1879 1868 1868 1868 1868 1868 1868 1868 1868 1868 1868 1868 1868 1868 1868 1868 1868 1868 1868 1868 1868 1868 1868 1856 1856 1856 1856 1856 1845 1845 1845 1845 1845 1845 1845 1845 1845 1845 1845 1845 1834 1834 1834 1834 1834 1834 1823 1823 1823 1823 1834 1834 1834 0 0 0 0 0 0 0 5536 5536 5536 5536 5437 5437 5342 5342 5250 5250 5161 5075 5075 4991 4911 4684 4544 4477 4477 4413 4413 4350 4229 4114 3954 3903 3854 3854 3854 3854 3806 3854 3854 3854 3854 3854 3854 3854 3854 3854 3854 3854 3854 3854 3854 3854 3806 3806 3806 3806 3806 3806 3759 3759 3759 3759 3806 3806 3854 3854 3903 3903 3954 4006 4006 4006 4060 4060 4114 4171 0 0 0 0 0 0 0 0 0 0 0 0 0 4114 4060 4060 4060 4060 4114 4171 4229 4288 4288 4288 4350 4413 4413 4477 4477 4477 4477 4477 0 0 0 0 0 0 0 0 0 0 0 0 0 0 0 0 0 0 0 0 0 0 0 0 0 0 0 0 0 0 0 0 0 0 0 0 0 0 0 0 0 0 0 0 0 0 0 0 0 0 0 0 0 0 0 0 0 0 0 0 0 0 0 0 0 0 0 0 0 0 0 0 0 0 0 0 0 0 0 0 0 0 0 0 0 0 0 0 0 0 0 0 0 0 0 0 0 0 0 0 0 0 0 0 0 0 0 0 0 0 0 0 0
0 0 0 0 0 0 0 0 0 0 0 0 0 0 0 0 0 0 0 0 0 0 0 0 0 0 0 0 0 0 0 0 0 0 0 0 0 0 0 0 0 0 0 0 0 0 0 0 0 0 0 0 0 0 0 0 0 0 0 0 0 0 0 0 0 0 0 0 0 0 0 0 0 0 0 0 0 0 0 0 0 0 0 0 0 0 0 0 0 0 0 0 0 0 0 0 0 0 0 0 0 0 0 0 0 0 0 0 0 0 0 0 0 0 0 0 0 0 0 0 0 0 0 0 0 0 0 2057 2043 2043 2043 2043 2043 2030 2030 2016 2003 2003 2003 1990 2003 2003 2003 2003 0 0 0 0 1611 1602 1602 1594 1594 1585 1577 1569 1561 1553 1553 1545 1530 1507 1507 1500 1485 1478 1478 1478 1471 1471 1463 1463 1463 1463 1463 1463 1463 1463 1463 1463 1463 1456 1456 1456 1456 1456 1456 1456 1450 1450 1450 1450 1450 1450 1450 1456 1456 1456 1456 1456 1456 1463 1463 1463 1463 1463 1463 1463 1463 1463 1463 1463 1463 1463 1471 1471 1471 1471 1471 1471 1471 1471 1478 1478 1478 1478 1478 1485 1485 1485 1492 1492 1492 1500 1500 1500 1500 1500 1507 1507 1507 1514 1522 1522 1530 1537 1545 1545 1553 1561 1561 1569 1577 1594 1602 1611 1619 1637 1682 1691 1701 1710 1720 1730 1730 1730 1720 1720 1710 1710 1710 1701 1701 1701 1701 1710 1710 1710 1720 1720 1730 1730 1740 1750 1750 1760 1760 1770 1770 1780 1791 1791 1801 1801 1812 1823 1834 1845 1856 1868 0 0 0 0 0 0 1990 1951 1951 1951 1951 1951 1951 1977 1977 1990 1990 2003 2003 2003 2003 1990 1977 1964 1951 1951 1951 1951 1939 1939 1939 1939 1939 1927 1927 1927 1927 1927 1915 1915 1915 1915 1915 1915 1915 1915 1915 1915 1915 1915 1915 1915 1903 1903 1891 1891 1879 1879 1879 1879 1879 1879 1868 1868 1868 1868 1868 1868 1856 1856 1856 1856 1856 1856 1856 1856 1856 1868 1868 1868 1868 1868 1868 1868 1868 1868 1856 1856 1856 1856 1856 1856 1856 1845 1845 1845 1845 1845 1845 1845 1845 1845 1845 1845 1845 1834 1834 1834 1834 1834 1834 1834 1823 1823 1823 1823 1834 1834 1845 0 0 0 0 0 0 0 5536 5536 5536 5536 5437 5437 5342 5250 5250 5161 5075 5075 4991 4911 4684 4544 4477 4477 4413 4413 4350 4229 4114 3954 3903 3854 3854 3806 3806 3806 3806 3854 3854 3854 3854 3854 3854 3854 3854 3854 3854 3854 3854 3854 3854 3854 3854 3806 3806 3806 3806 3806 3759 3759 3806 3806 3854 3854 3854 3903 3903 3954 3954 4006 4006 4006 4006 4060 4114 0 0 0 0 0 0 0 0 0 0 0 0 0 4114 4060 4060 4060 4060 4060 4114 4171 4229 4288 4288 4350 4413 4413 4413 4413 4477 4477 4477 4477 4544 0 0 0 0 0 0 0 0 0 0 0 0 0 0 0 0 0 0 0 0 0 0 0 0 0 0 0 0 0 0 0 0 0 0 0 0 0 0 0 0 0 0 0 0 0 0 0 0 0 0 0 0 0 0 0 0 0 0 0 0 0 0 0 0 0 0 0 0 0 0 0 0 0 0 0 0 0 0 0 0 0 0 0 0 0 0 0 0 0 0 0 0 0 0 0 0 0 0 0 0 0 0 0 0 0 0 0 0 0 0 0
0 0 0 0 0 0 0 0 0 0 0 0 0 0 0 0 0 0 0 0 0 0 0 0 0 0 0 0 0 0 0 0 0 0 0 0 0 0 0 0 0 0 0 0 0 0 0 0 0 0 0 0 0 0 0 0 0 0 0 0 0 0 0 0 0 0 0 0 0 0 0 0 0 0 0 0 0 0 0 0 0 0 0 0 0 0 0 0 0 0 0 0 0 0 0 0 0 0 0 0 0 0 0 0 0 0 0 0 0 0 0 0 0 0 0 0 0 0 0 0 0 0 0 0 0 2057 2057 2043 2043 2043 2043 2043 2043 2030 2030 2016 2003 2003 2003 2003 2003 2003 2003 2003 0 0 0 1611 1611 1602 1594 1594 1594 1585 1577 1569 1561 1561 1553 1545 1530 1507 1500 1492 1485 1478 1478 1471 1471 1471 1463 1463 1463 1463 1463 1463 1463 1463 1463 1463 1456 1456 1456 1456 1456 1456 1456 1450 1450 1450 1450 1450 1450 1450 1450 1456 1456 1456 1456 1456 1456 1456 1456 1463 1463 1463 1463 1463 1463 1463 1463 1463 1463 1463 1463 1471 1471 1471 1471 1471 1471 1471 1478 1478 1478 1478 1478 1485 1485 1485 1485 1492 1492 1492 1500 1500 1500 1500 1507 1507 1507 1514 1514 1522 1530 1537 1545 1545 1553 1561 1561 1569 1577 1594 1602 1611 1619 1637 1682 1701 1720 1730 1730 1740 1740 1740 1740 1730 1720 1720 1710 1710 1710 1710 1710 1710 1710 1720 1720 1720 1730 1730 1730 1740 1750 1760 1760 1770 1770 1780 1791 1791 1801 1801 1812 1823 1834 1845 1856 1868 1879 0 0 0 0 1990 1939 1927 1939 1939 1939 1939 1939 1951 1951 1951 1951 1951 1951 1951 1951 1951 1951 1939 1939 1939 1939 1939 1939 1939 1939 1927 1927 1927 1927 1927 1927 1915 1915 1915 1915 1915 1915 1915 1915 1915 1915 1915 1915 1915 1915 1915 1903 1891 1891 1879 1879 1879 1879 1868 1868 1868 1868 1868 1868 1868 1868 1856 1856 1856 1856 1856 1856 1856 1856 1856 1856 1856 1868 1868 1868 1868 1868 1868 1868 1856 1856 1856 1856 1856 1856 1856 1845 1845 1845 1845 1845 1845 1845 1845 1845 1845 1845 1845 1845 1834 1834 1834 1834 1834 1834 1834 1834 1834 1823 1823 1823 1834 1834 0 0 0 0 0 0 0 0 5638 5536 5536 5536 5437 5342 5342 5250 5161 5075 4991 4991 4911 4684 4544 4477 4413 4413 4413 4350 4229 4114 3954 3903 3854 3854 3806 3806 3806 3806 3854 3854 3854 3854 3854 3854 3854 3854 3854 3854 3854 3854 3854 3854 3854 3854 3854 3854 3806 3806 3806 3806 3806 3806 3806 3854 3854 3903 3903 3903 3903 3954 3954 4006 4006 4006 4006 4060 4171 0 0 0 0 0 0 0 0 0 0 0 0 4114 4060 4060 4060 4060 4060 4114 4171 4229 4288 4288 4350 4413 4413 4413 4413 4413 4413 4477 4413 4413 4413 4413 0 0 0 0 0 0 0 0 0 0 0 0 0 0 0 0 0 0 0 0 0 0 0 0 0 0 0 0 0 0 0 0 0 0 0 0 0 0 0 0 0 0 0 0 0 0 0 0 0 0 0 0 0 0 0 0 0 0 0 0 0 0 0 0 0 0 0 0 0 0 0 0 0 0 0 0 0 0 0 0 0 0 0 0 0 0 0 0 0 0 0 0 0 0 0 0 0 0 0 0 0 0 0 0 0 0 0 0 0
0 0 0 0 0 0 0 0 0 0 0 0 0 0 0 0 0 0 0 0 0 0 0 0 0 0 0 0 0 0 0 0 0 0 0 0 0 0 0 0 0 0 0 0 0 0 0 0 0 0 0 0 0 0 0 0 0 0 0 0 0 0 0 0 0 0 0 0 0 0 0 0 0 0 0 0 2043 0 0 0 0 0 0 0 0 0 0 0 0 0 0 0 0 0 0 0 0 0 0 0 0 0 0 0 0 0 0 0 0 0 0 0 0 0 0 0 0 0 0 0 0 2057 2057 2057 2057 2043 2043 2043 2043 2043 2043 2043 2030 2030 2030 2016 2003 2003 2003 2003 2003 2003 2003 2003 2003 2003 2003 1611 1611 1602 1594 1594 1594 1585 1585 1569 1569 1561 1553 1545 1530 1507 1500 1492 1478 1478 1478 1471 1471 1463 1463 1463 1463 1463 1463 1463 1463 1463 1463 1456 1456 1456 1456 1456 1456 1456 1450 1450 1450 1450 1450 1450 1450 1450 1450 1450 1456 1456 1456 1456 1456 1456 1456 1456 1456 1463 1463 1463 1463 1463 1463 1463 1463 1463 1463 1471 1471 1471 1471 1471 1471 1471 1478 1478 1478 1478 1478 1485 1485 1485 1485 1485 1492 1492 1492 1500 1500 1500 1500 1507 1507 1514 1514 1522 1530 1537 1545 1545 1553 1561 1561 1569 1577 1585 1602 1611 1619 1645 1691 1720 1730 1740 1750 1750 1750 1750 1750 1740 1740 1730 1720 1720 1710 1710 1710 1710 1720 1720 1720 1720 1730 1730 1730 1740 1750 1750 1760 1770 1770 1780 1791 1791 1801 1801 1812 1834 1845 1856 1856 1868 1879 1891 0 0 0 1927 1927 1927 1927 1927 1927 1939 1939 1939 1939 1939 1939 1939 1939 1939 1939 1939 1939 1939 1939 1939 1939 1927 1927 1927 1927 1927 1927 1927 1927 1927 1927 1915 1915 1915 1915 1915 1915 1915 1915 1915 1915 1915 1915 1915 1915 1903 1903 1891 1879 1879 1879 1868 1868 1868 1868 1868 1868 1868 1868 1868 1856 1856 1856 1856 1856 1856 1856 1856 1856 1856 1856 1856 1856 1868 1868 1868 1868 1868 1868 1856 1856 1856 1856 1856 1856 1856 1856 1845 1845 1845 1845 1845 1845 1845 1845 1845 1845 1845 1845 1845 1834 1834 1834 1834 1834 1834 1834 1823 1823 1823 1823 1823 1834 1834 0 0 0 0 0 0 0 5745 5638 5536 5536 5437 5437 5342 5250 5161 5075 4991 4991 4911 4684 4544 4477 4413 4413 4413 4350 4229 4114 3954 3954 3903 3854 3806 3806 3806 3806 3806 3854 3854 3854 3854 3854 3854 3854 3854 3854 3854 3854 3854 3854 3854 3854 3854 3854 3854 3854 3806 3806 3806 3854 3854 3854 3854 3903 3903 3903 3954 3954 3954 3954 3954 4006 4006 4006 4114 0 0 0 0 0 0 0 0 0 0 0 0 4060 4060 4060 4060 4060 4060 4114 4114 4171 4288 4288 4350 4413 4413 4413 4413 4413 4413 4413 4413 4413 4413 4413 4413 4477 0 0 0 0 0 0 0 0 0 0 0 0 0 0 0 0 0 0 0 0 0 0 0 0 0 0 0 0 0 0 0 0 0 0 0 0 0 0 0 0 0 0 0 0 0 0 0 0 0 0 0 0 0 0 0 0 0 0 0 0 0 0 0 0 0 0 0 0 0 0 0 0 0 0 0 0 0 0 0 0 0 0 0 0 0 0 0 0 0 0 0 0 0 0 0 0 0 0 0 0 0 0 0 0 0 0 0
0 0 0 0 0 0 0 0 0 0 0 0 0 0 0 0 0 0 0 0 0 0 0 0 0 0 0 0 0 0 0 0 0 0 0 0 0 0 0 0 0 0 0 0 0 0 0 0 0 0 0 0 0 0 0 0 0 0 0 0 0 0 0 0 0 0 0 0 0 0 0 0 0 0 0 2030 2030 2030 2043 0 0 0 0 0 0 0 0 0 0 0 0 0 0 0 0 1977 1977 1977 1990 2003 2003 2030 0 0 0 0 0 0 0 0 2043 2043 2043 2043 2043 2043 2043 2043 2043 2043 2043 2043 2043 2043 2043 2043 2043 2043 2043 2030 2043 2030 2030 2030 2030 2016 2003 2003 2003 2003 2003 2003 2003 2003 2003 2003 2003 1977 1602 1602 1594 1594 1594 1585 1585 1569 1569 1561 1553 1545 1530 1507 1500 1485 1478 1478 1478 1471 1471 1463 1463 1463 1463 1463 1463 1463 1456 1456 1456 1456 1456 1456 1456 1456 1456 1450 1450 1450 1450 1450 1450 1450 1450 1450 1450 1450 1450 1456 1456 1456 1456 1456 1456 1456 1456 1456 1463 1463 1463 1463 1463 1463 1463 1463 1463 1463 1471 1471 1471 1471 1471 1471 1478 1478 1478 1478 1478 1485 1485 1485 1485 1485 1492 1492 1492 1500 1500 1500 1500 1507 1507 1507 1514 1522 1530 1537 1537 1545 1553 1553 1561 1569 1577 1585 1602 1611 1628 1663 1710 1740 1760 1770 1770 1770 1770 1760 1760 1750 1750 1740 1730 1720 1720 1720 1720 1720 1720 1720 1720 1730 1730 1730 1730 1740 1750 1750 1760 1770 1770 1780 1791 1791 1801 1812 1823 1834 1845 1856 1868 1868 1879 1891 0 0 0 1927 1927 1927 1927 1927 1927 1927 1927 1939 1939 1939 1939 1939 1939 1939 1939 1939 1939 1939 1939 1927 1927 1927 1927 1927 1927 1927 1927 1927 1927 1927 1927 1927 1915 1915 1915 1915 1915 1915 1915 1915 1915 1915 1915 1915 1915 1903 1903 1891 1879 1879 1879 1868 1868 1868 1868 1868 1868 1868 1868 1868 1856 1856 1856 1856 1856 1856 1856 1856 1856 1856 1856 1856 1856 1856 1868 1868 1868 1868 1856 1856 1856 1856 1856 1856 1856 1856 1856 1845 1845 1845 1845 1845 1856 1856 1856 1845 1845 1845 1845 1845 1845 1834 1834 1834 1834 1834 1834 1823 1823 1823 1823 1823 1823 1823 1845 0 0 0 0 0 0 0 5745 5638 5536 5437 5437 5342 5250 5161 5075 5075 4991 4991 4833 4544 4477 4477 4413 4413 4350 4229 4114 4006 3954 3903 3854 3854 3806 3806 3806 3854 3854 3854 3854 3854 3854 3854 3854 3854 3854 3854 3903 3903 3903 3903 3903 3903 3854 3854 3854 3854 3854 3854 3854 3854 3854 3903 3903 3903 3903 3954 3954 3954 3954 3954 3954 3954 4006 4006 4171 0 0 0 0 0 0 0 0 0 0 4114 4060 4006 4006 4060 4060 4060 4114 4114 4171 4229 4288 4350 4413 4413 4413 4413 4413 4413 4413 4350 4350 4350 4350 4413 4413 4477 0 0 0 0 0 0 0 0 0 0 0 0 0 0 0 0 0 0 0 0 0 0 0 0 0 0 0 0 0 0 0 0 0 0 0 0 0 0 0 0 0 0 0 0 0 0 0 0 0 0 0 0 0 0 0 0 0 0 0 0 0 0 0 0 0 0 0 0 0 0 0 0 0 0 0 0 0 0 0 0 0 0 0 0 0 0 0 0 0 0 0 0 0 0 0 0 0 0 0 0 0 0 0 0 0 0
0 0 0 0 0 0 0 0 0 0 0 0 0 0 0 0 0 0 0 0 0 0 0 0 0 0 0 0 0 0 0 0 0 0 0 0 0 0 0 0 0 0 0 0 0 0 0 0 0 0 0 0 0 0 0 0 0 0 0 0 0 0 0 0 0 0 0 0 0 0 0 0 0 0 2030 2016 2016 2016 2030 2030 2057 0 0 0 0 0 0 0 0 0 0 0 0 0 1990 1977 1977 1977 1977 1990 2003 2016 2016 2030 2030 2043 2043 2043 2043 2043 2043 2043 2043 2043 2043 2043 2043 2043 2043 2043 2043 2043 2043 2043 2043 2043 2043 2043 2030 2030 2030 2030 2030 2030 2030 2030 2016 2003 2003 2003 2003 2003 2003 2003 2003 2003 2003 1977 1602 1602 1594 1594 1594 1585 1585 1569 1569 1561 1553 1545 1530 1507 1500 1485 1478 1478 1478 1471 1471 1463 1463 1463 1463 1463 1463 1456 1456 1456 1456 1456 1456 1456 1456 1456 1456 1450 1450 1450 1450 1450 1450 1450 1450 1450 1450 1450 1450 1456 1456 1456 1456 1456 1456 1456 1456 1456 1463 1463 1463 1463 1463 1463 1463 1463 1463 1463 1463 1471 1471 1471 1471 1471 1478 1478 1478 1478 1478 1485 1485 1485 1485 1485 1492 1492 1492 1492 1500 1500 1500 1507 1507 1507 1514 1522 1530 1537 1537 1545 1553 1553 1561 1561 1577 1585 1602 1611 1628 1691 1750 1770 1780 1780 1780 1780 1780 1770 1770 1770 1760 1750 1750 1740 1730 1720 1720 1720 1720 1720 1720 1730 1730 1730 1740 1740 1750 1750 1760 1770 1770 1780 1791 1791 1801 1812 1823 1834 1856 1856 1868 1879 1891 1927 1977 1977 1939 1927 1927 1927 1927 1927 1927 1927 1927 1927 1939 1939 1939 1939 1939 1939 1939 1939 1939 1939 1939 1927 1927 1927 1927 1927 1927 1927 1927 1927 1927 1927 1927 1927 1927 1915 1915 1915 1915 1915 1915 1927 1927 1927 1915 1915 1915 1903 1903 1891 1879 1879 1879 1868 1868 1868 1868 1868 1868 1868 1868 1868 1868 1856 1856 1856 1856 1856 1856 1856 1856 1856 1856 1856 1856 1868 1868 1868 1868 1868 1868 1856 1856 1856 1856 1856 1856 1856 1856 1856 1856 1856 1856 1856 1856 1856 1856 1856 1856 1845 1845 1845 1845 1845 1834 1834 1834 1834 1834 1834 1823 1823 1823 1823 1823 1823 1834 0 0 0 0 0 0 0 5855 5638 5638 5536 5437 5437 5342 5250 5161 5075 5075 4991 4911 4684 4613 4544 4413 4413 4350 4288 4114 4006 3954 3903 3854 3854 3854 3854 3854 3854 3854 3854 3854 3854 3854 3854 3854 3854 3854 3903 3903 3903 3903 3903 3903 3903 3903 3854 3854 3854 3854 3854 3854 3854 3903 3903 3903 3903 3903 3954 3954 3954 3954 3954 3954 3954 3954 3954 4006 0 0 0 0 0 0 0 0 0 0 4060 4006 4006 4006 4006 4060 4060 4114 4114 4114 4171 4288 4350 4413 4413 4413 4413 4413 4413 4350 4350 4350 4350 4350 4350 4413 4413 0 0 0 0 0 0 0 0 0 0 0 0 0 0 0 0 0 0 0 0 0 0 0 0 0 0 0 0 0 0 0 0 0 0 0 0 0 0 0 0 0 0 0 0 0 0 0 0 0 0 0 0 0 0 0 0 0 0 0 0 0 0 0 0 0 0 0 0 0 0 0 0 0 0 0 0 0 0 0 0 0 0 0 0 0 0 0 0 0 0 0 0 0 0 0 0 0 0 0 0 0 0 0 0 0 0
0 0 0 0 0 0 0 0 0 0 0 0 0 0 0 0 0 0 0 0 0 0 0 0 0 0 0 0 0 0 0 0 0 0 0 0 0 0 0 0 0 0 0 0 0 0 0 0 0 0 0 0 0 0 0 0 0 0 0 0 0 0 0 0 0 0 0 0 0 0 0 0 0 2030 2003 2003 2003 2003 2016 2030 2043 2057 2057 0 0 0 0 0 0 0 0 0 2057 2003 1990 1977 1977 1977 1977 1990 1990 2003 2016 2016 2030 2030 2043 2043 2043 2043 2043 2043 2043 2043 2043 2043 2043 2043 2043 2043 2043 2043 2043 2043 2043 2043 2043 2030 2030 2030 2030 2030 2030 2030 2030 2030 2030 2016 2016 2016 2003 2003 2003 2003 2003 2003 2003 1990 1602 1602 1594 1594 1594 1585 1585 1569 1569 1561 1553 1545 1530 1507 1500 1485 1478 1478 1478 1471 1471 1463 1463 1463 1463 1456 1456 1456 1456 1456 1456 1456 1456 1456 1456 1456 1450 1450 1450 1450 1450 1450 1450 1450 1450 1450 1450 1450 1450 1450 1456 1456 1456 1456 1456 1456 1456 1456 1456 1463 1463 1463 1463 1463 1463 1463 1463 1463 1463 1471 1471 1471 1471 1471 1478 1478 1478 1478 1478 1478 1485 1485 1485 1485 1485 1492 1492 1492 1500 1500 1500 1507 1507 1514 1514 1522 1530 1530 1537 1545 1553 1553 1561 1561 1577 1585 1602 1619 1663 0 1845 1845 1845 1845 1845 1845 1823 1801 1780 1770 1770 1760 1750 1750 1740 1740 1730 1730 1730 1730 1730 1730 1730 1730 1740 1740 1750 1750 1760 1770 1770 1780 1791 1791 1801 1823 1834 1845 1856 1868 1879 1891 1927 1964 1977 1964 1951 1939 1927 1927 1927 1927 1927 1927 1927 1927 1939 1939 1939 1939 1939 1939 1939 1939 1939 1939 1939 1927 1927 1927 1927 1927 1927 1927 1927 1927 1927 1927 1927 1927 1927 1927 1927 1927 1927 1927 1927 1927 1927 1927 1927 1915 1915 1915 1903 1891 1891 1879 1879 1879 1868 1868 1868 1868 1868 1868 1868 1868 1868 1868 1856 1856 1856 1856 1856 1856 1856 1856 1856 1856 1856 1868 1868 1868 1868 1868 1868 1856 1856 1856 1856 1856 1856 1856 1856 1856 1856 1856 1856 1856 1856 1856 1856 1856 1856 1856 1856 1845 1845 1845 1845 1834 1834 1834 1834 1834 1823 1823 1823 1823 1812 1812 1812 0 0 0 0 0 0 0 0 5745 5638 5638 5638 5536 5437 5342 5250 5250 0 0 4991 4911 4757 4613 4477 4413 4413 4288 4229 4060 4006 3954 3903 3854 3854 3854 3854 3854 3854 3854 3854 3854 3854 3854 3854 3854 3854 3903 3903 3903 3903 3903 3903 3903 3903 3903 3854 3854 3854 3854 3854 3854 3903 3903 3903 3903 3903 3903 3954 3954 3954 3954 3954 3954 3954 3954 3954 0 0 0 0 0 0 0 0 0 0 4060 4006 4006 4006 4006 4060 4060 4060 4114 4114 4171 4229 4350 4413 4413 4413 4413 4413 4350 4350 4350 4350 4288 4288 4288 4350 4413 4477 0 0 0 0 0 0 0 0 0 0 0 0 0 0 0 0 0 0 0 0 0 0 0 0 0 0 0 0 0 0 0 0 0 0 0 0 0 0 0 0 0 0 0 0 0 0 0 0 0 0 0 0 0 0 0 0 0 0 0 0 0 0 0 0 0 0 0 0 0 0 0 0 0 0 0 0 0 0 0 0 0 0 0 0 0 0 0 0 0 0 0 0 0 0 0 0 0 0 0 0 0 0 0 0 0
0 0 0 0 0 0 0 0 0 0 0 0 0 0 0 0 0 0 0 0 0 0 0 0 0 0 0 0 0 0 0 0 0 0 0 0 0 0 0 0 0 0 0 0 0 0 0 0 0 0 0 0 0 0 0 0 0 0 0 0 0 0 0 0 0 0 0 0 0 0 0 0 0 2030 2003 2003 2003 2003 2003 2016 2030 2043 2057 2057 2057 2057 2057 2071 2071 0 2071 2057 2016 2003 1990 1977 1977 1977 1990 1990 1990 2003 2016 2016 2030 2030 2030 2043 2043 2043 2043 2043 2043 2043 2043 2043 2043 2043 2043 2043 2043 2043 2043 2043 2043 2043 2030 2030 2030 2030 2030 2030 2030 2030 2030 2030 2030 2030 2030 2016 2016 2016 2003 2016 2016 2003 2003 1990 1602 1602 1594 1594 1594 1585 1577 1569 1569 1561 1553 1545 1530 1507 1500 1485 1478 1478 1471 1471 1471 1463 1463 1463 1456 1456 1456 1456 1456 1456 1456 1456 1456 1456 1456 1456 1450 1450 1450 1450 1450 1450 1450 1450 1450 1450 1450 1450 1450 1450 1456 1456 1456 1456 1456 1456 1456 1456 1456 1463 1463 1463 1463 1463 1463 1463 1463 1463 1463 1463 1471 1471 1471 1471 1478 1478 1478 1478 1478 1478 1485 1485 1485 1485 1485 1492 1492 1492 1500 1500 1500 1507 1507 1507 1514 1522 1530 1530 1537 1545 1545 1553 1561 1561 1577 1585 1602 1628 0 1903 1915 1903 1891 1879 1868 1868 1856 1845 1812 1791 1770 1770 1760 1750 1740 1740 1740 1730 1730 1730 1730 1730 1730 1730 1740 1740 1750 1750 1760 1770 1770 1780 1791 1801 1812 1823 1834 1856 1868 1868 1879 1915 1951 1990 2003 1990 1964 1951 1939 1927 1927 1927 1927 1927 1927 1939 1939 1939 1939 1939 1939 1939 1939 1939 1939 1939 1939 1939 1927 1927 1927 1939 1939 1939 1939 1939 1927 1927 1927 1927 1927 1927 1927 1927 1927 1927 1927 1927 1927 1927 1927 1927 1915 1915 1903 1903 1891 1891 1879 1879 1879 1879 1879 1879 1879 1879 1879 1868 1868 1868 1868 1868 1868 1868 1856 1856 1856 1856 1856 1856 1856 1868 1868 1868 1868 1868 1868 1868 1868 1856 1856 1856 1856 1856 1856 1856 1856 1856 1856 1856 1856 1856 1856 1856 1856 1856 1856 1856 1845 1845 1845 1845 1834 1834 1834 1834 1823 1823 1812 1812 1801 1801 1801 1812 0 0 0 0 0 0 0 0 0 5745 5745 5638 5638 0 0 0 0 0 0 0 0 0 4613 4413 4413 4350 4288 4114 4006 3954 3954 3903 3854 3854 3854 3854 3854 3854 3854 3854 3854 3854 3854 3854 3854 3903 3903 3903 3903 3903 3903 3903 3903 3903 3854 3854 3854 3854 3854 3854 3903 3903 3903 3903 3903 3903 3903 3954 3954 3954 3954 3954 3954 3954 3954 0 0 0 0 0 0 0 0 0 0 0 4006 4006 4006 4006 4006 4060 4060 4114 4114 4171 4229 4350 4413 4413 4413 4413 4350 4350 4350 4288 4288 4288 4288 4229 4288 4350 4413 0 0 0 0 0 0 0 0 0 0 0 0 0 0 0 0 0 0 0 0 0 0 0 0 0 0 0 0 0 0 0 0 0 0 0 0 0 0 0 0 0 0 0 0 0 0 0 0 0 0 0 0 0 0 0 0 0 0 0 0 0 0 0 0 0 0 0 0 0 0 0 0 0 0 0 0 0 0 0 0 0 0 0 0 0 0 0 0 0 0 0 0 0 0 0 0 0 0 0 0 0 0 0 0 0
0 0 0 0 0 0 0 0 0 0 0 0 0 0 0 0 0 0 0 0 0 0 0 0 0 0 0 0 0 0 0 0 0 0 0 0 0 0 0 0 0 0 0 0 0 0 0 0 0 0 0 0 0 0 0 0 0 0 0 0 0 0 0 0 0 0 0 0 0 0 0 0 0 2030 2003 2003 2003 2003 2003 2016 2030 2043 2057 2057 2057 2057 2057 2057 2057 2057 2057 2030 2016 2003 1990 1990 1990 1990 1990 1990 2003 2003 2003 2016 2030 2030 2030 2043 2043 2043 2043 2043 2043 2043 2043 2043 2043 2043 2043 2043 2043 2043 2043 2043 2043 2043 2030 2030 2030 2030 2030 2030 2030 2030 2030 2030 2030 2030 2030 2030 2030 2016 2016 2016 2016 2016 2003 1990 1611 1602 1602 1594 1594 1585 1577 1569 1569 1561 1553 1545 1530 1507 1500 1485 1478 1478 1471 1471 1471 1463 1463 1463 1456 1456 1456 1456 1456 1456 1456 1456 1456 1450 1450 1450 1450 1450 1450 1450 1450 1450 1450 1450 1450 1450 1450 1450 1450 1450 1456 1456 1456 1456 1456 1456 1456 1456 1456 1456 1463 1463 1463 1463 1463 1463 1463 1463 1463 1463 1463 1471 1471 1471 1478 1478 1478 1478 1478 1478 1485 1485 1485 1485 1485 1492 1492 1492 1500 1500 1500 1507 1507 1507 1514 1522 1530 1530 1537 1537 1545 1553 1561 1561 1569 1585 1602 0 0 1927 1927 1927 1915 1903 1891 1879 1868 1868 1856 1823 1801 1780 1770 1760 1750 1740 1740 1740 1740 1740 1730 1730 1730 1740 1740 1740 1750 1750 1760 1770 1770 1780 1791 1801 1823 1834 1845 1856 1868 1891 1927 1951 1990 2030 2043 2030 2003 1964 1951 1939 1939 1939 1939 1939 1939 1939 1939 1939 1939 1939 1939 1939 1939 1939 1939 1939 1939 1939 1939 1939 1939 1939 1939 1939 1939 1939 1939 1927 1927 1927 1927 1927 1927 1927 1927 1927 1927 1927 1927 1927 1927 1927 1927 1915 1915 1903 1903 1891 1891 1879 1879 1879 1879 1879 1879 1879 1879 1879 1879 1868 1868 1868 1868 1868 1868 1868 1856 1856 1856 1868 1868 1868 1868 1868 1868 1868 1868 1868 1868 1868 1868 1856 1856 1856 1856 1856 1856 1856 1856 1856 1856 1856 1868 1868 1868 1856 1856 1856 1856 1845 1845 1845 1834 1834 1834 1834 1823 1823 1812 1801 1801 1801 1801 0 0 0 0 0 0 0 0 0 0 0 0 0 0 0 0 0 0 0 0 0 0 0 4757 4613 4544 4477 4350 4229 4060 4006 3954 3903 3854 3854 3854 3854 3854 3854 3854 3854 3854 3854 3854 3854 3854 3903 3903 3903 3903 3903 3903 3903 3903 3854 3854 3854 3854 3854 3854 3854 3903 3903 3903 3903 3903 3903 3903 3903 3903 3903 3903 3903 3903 3903 3954 0 0 0 0 0 0 0 0 0 0 0 4006 4006 4006 4006 4006 4060 4060 4114 4114 4171 4288 4350 4413 4413 4413 4413 4350 4350 4350 4288 4229 4229 4229 4171 4229 4288 4413 0 0 0 0 0 0 0 0 0 0 0 0 0 0 0 0 0 0 0 0 0 0 0 0 0 0 0 0 0 0 0 0 0 0 0 0 0 0 0 0 0 0 0 0 0 0 0 0 0 0 0 0 0 0 0 0 0 0 0 0 0 0 0 0 0 0 0 0 0 0 0 0 0 0 0 0 0 0 0 0 0 0 0 0 0 0 0 0 0 0 0 0 0 0 0 0 0 0 0 0 0 0 0 0 0
0 0 0 0 0 0 0 0 0 0 0 0 0 0 0 0 0 0 0 0 0 0 0 0 0 0 0 0 0 0 0 0 0 0 0 0 0 0 0 0 0 0 0 0 0 0 0 0 0 0 0 0 0 0 0 0 0 0 0 0 0 0 0 0 0 0 0 0 0 0 0 0 0 2030 2003 2003 2003 2003 2003 2016 2030 2030 2043 2057 2057 2057 2057 2057 2057 2057 2043 2030 2016 2003 2003 1990 1990 1990 1990 2003 2003 2003 2016 2016 2030 2030 2043 2043 2043 2043 2043 2043 2043 2043 2043 2057 2057 2043 2043 2043 2043 2043 2043 2043 2043 2043 2030 2030 2030 2030 2030 2030 2030 2030 2030 2030 2030 2030 2030 2030 2030 2030 2016 2016 2016 2016 2003 1990 1977 1602 1602 1594 1594 1585 1577 1569 1569 1561 1553 1537 1522 1507 1492 1485 1478 1478 1471 1471 1463 1463 1463 1456 1456 1456 1456 1456 1450 1450 1450 1450 1450 1450 1450 1450 1450 1450 1450 1450 1450 1450 1450 1450 1450 1450 1450 1450 1450 1450 1456 1456 1456 1456 1456 1456 1456 1456 1456 1456 1456 1463 1463 1463 1463 1463 1463 1463 1463 1463 1463 1471 1471 1471 1478 1478 1478 1478 1478 1478 1478 1485 1485 1485 1485 1492 1492 1492 1500 1500 1500 1507 1507 1507 1514 1522 1530 1530 1537 1537 1545 1553 1561 1561 1569 1585 1602 0 0 1939 1939 1927 1927 1915 1915 1903 1891 1879 1868 1868 1845 1801 1780 1770 1760 1750 1750 1740 1740 1740 1740 1740 1740 1740 1740 1750 1750 1760 1760 1770 1780 1791 1801 1812 1834 1845 1856 1868 1891 1927 1939 1977 2030 2057 2057 2043 2043 1990 1951 1951 1939 1939 1939 1939 1939 1939 1939 1939 1939 1939 1939 1939 1939 1939 1939 1939 1939 1939 1939 1939 1939 1939 1939 1939 1939 1939 1939 1939 1927 1927 1927 1927 1927 1927 1927 1927 1927 1927 1927 1927 1927 1927 1927 1927 1915 1915 1915 1903 1891 1891 1891 1891 1891 1891 1891 1891 1891 1891 1879 1879 1879 1868 1868 1868 1868 1868 1868 1868 1868 1868 1868 1868 1868 1868 1868 1868 1868 1868 1868 1868 1868 1868 1868 1868 1868 1868 1868 1868 1868 1868 1868 1868 1868 1868 1868 1868 1868 1856 1856 1856 1845 1845 1845 1845 1834 1834 1823 1823 1823 1812 1801 1801 1812 0 0 0 0 0 0 0 0 0 0 0 0 0 0 0 0 0 0 0 0 0 0 0 0 4684 4613 4544 4477 4288 4114 4006 3954 3903 3903 3854 3854 3854 3854 3854 3854 3854 3854 3854 3854 3854 3854 3854 3903 3903 3854 3854 3854 3854 3854 3854 3854 3854 3854 3854 3854 3854 3903 3903 3903 3903 3903 3954 3903 3903 3903 3903 3903 3903 3903 3903 3954 0 0 0 0 0 0 0 0 0 0 0 0 4006 4006 4060 4060 4060 4114 4114 4114 4171 4288 4350 4413 4413 4413 4413 4350 4288 4288 4229 4171 4171 4171 4114 4171 4171 4288 0 0 0 0 0 0 0 0 0 0 0 0 0 0 0 0 0 0 0 0 0 0 0 0 0 0 0 0 0 0 0 0 0 0 0 0 0 0 0 0 0 0 0 0 0 0 0 0 0 0 0 0 0 0 0 0 0 0 0 0 0 0 0 0 0 0 0 0 0 0 0 0 0 0 0 0 0 0 0 0 0 0 0 0 0 0 0 0 0 0 0 0 0 0 0 0 0 0 0 0 0 0 0 0 0
0 0 0 0 0 0 0 0 0 0 0 0 0 0 0 0 0 0 0 0 0 0 0 0 0 0 0 0 0 0 0 0 0 0 0 0 0 0 0 0 0 0 0 0 0 0 0 0 0 0 0 0 0 0 0 0 0 0 0 0 0 0 0 0 0 0 0 0 0 0 0 0 0 2030 2016 2003 2003 2003 2016 2030 2030 2043 2043 2057 2057 2057 2057 2057 2057 2057 2043 2030 2016 2016 2003 2003 2003 2003 2003 2003 2003 2016 2016 2030 2030 2030 2043 2043 2043 2043 2043 2043 2057 2057 2057 2057 2057 2057 2043 2043 2043 2043 2043 2043 2043 2043 2030 2030 2030 2030 2030 2030 2030 2030 2043 2043 2043 2043 2043 2043 2043 2030 2030 2016 2016 2016 2003 1990 1977 1602 1602 1602 1594 1585 1577 1569 1561 1561 1553 1537 1522 1500 1492 1485 1478 1478 1471 1471 1463 1463 1456 1456 1456 1456 1456 1450 1450 1450 1450 1450 1450 1450 1450 1450 1450 1450 1450 1450 1450 1450 1450 1450 1450 1450 1450 1450 1450 1450 1456 1456 1456 1456 1456 1456 1456 1456 1456 1456 1456 1463 1463 1463 1463 1463 1463 1463 1463 1463 1463 1463 1471 1471 1471 1478 1478 1478 1478 1478 1478 1485 1485 1485 1485 1492 1492 1492 1500 1500 1500 1507 1507 1507 1514 1522 1522 1530 1537 1537 1545 1553 1553 1561 1569 1585 0 0 0 0 0 1939 1927 1927 1927 1915 1903 1891 1879 1868 1868 1845 1812 1780 1770 1760 1750 1750 1740 1740 1740 1740 1740 1740 1750 1750 1760 1760 1770 1770 1791 1791 1812 1834 1845 1856 1868 1879 1915 1939 1964 2003 2043 2057 2057 2043 2043 2003 1964 1951 1951 1939 1939 1939 1939 1939 1939 1939 1939 1939 1939 1939 1939 1939 1939 1939 1939 1939 1939 1939 1939 1939 1939 1939 1939 1939 1939 1939 1927 1927 1927 1927 1927 1927 1927 1927 1927 1927 1927 1927 1927 1927 1927 1927 1927 1915 1915 1915 1903 1903 1903 1903 1903 1903 1903 1903 1903 1903 1891 1891 1891 1879 1879 1879 1868 1868 1868 1868 1868 1868 1868 1868 1879 1879 1868 1868 1868 1868 1868 1868 1868 1868 1868 1868 1868 1868 1868 1868 1868 1868 1868 1868 1868 1868 1868 1868 1868 1868 1868 1856 1856 1856 1845 1845 1845 1834 1834 1834 1823 1823 1812 1812 0 0 0 0 0 0 0 0 0 0 0 0 0 0 0 0 0 0 0 0 0 0 0 0 0 4684 4684 4613 4544 4477 4229 4060 4006 3954 3903 3854 3854 3854 3854 3806 3806 3806 3806 3806 3854 3854 3854 3854 3854 3854 3854 3854 3854 3854 3854 3854 3854 3854 3854 3854 3854 3854 3903 3903 3903 3903 3903 3954 3903 3903 3903 3903 3903 3903 3903 3903 3954 0 0 0 0 0 0 0 0 0 0 0 0 0 4060 4060 4114 4114 4114 4114 4114 4171 4229 4350 4350 4413 4413 4350 4350 4288 4229 4171 4171 4114 4114 4114 4114 4114 4114 4229 0 0 0 0 0 0 0 0 0 0 0 0 0 0 0 0 0 0 0 0 0 0 0 0 0 0 0 0 0 0 0 0 0 0 0 0 0 0 0 0 0 0 0 0 0 0 0 0 0 0 0 0 0 0 0 0 0 0 0 0 0 0 0 0 0 0 0 0 0 0 0 0 0 0 0 0 0 0 0 0 0 0 0 0 0 0 0 0 0 0 0 0 0 0 0 0 0 0 0 0 0 0 0 0
0 0 0 0 0 0 0 0 0 0 0 0 0 0 0 0 0 0 0 0 0 0 0 0 0 0 0 0 0 0 0 0 0 0 0 0 0 0 0 0 0 0 0 0 0 0 0 0 0 0 0 0 0 0 0 0 0 0 0 0 0 0 0 0 0 0 0 0 0 0 0 0 0 2043 2030 2016 2016 2016 2016 2030 2030 2043 2043 2057 2057 2057 2057 2057 2057 2043 2030 2030 2016 2016 2016 2016 2003 2003 2003 2016 2016 2016 2030 2030 2030 2043 2043 2043 2043 2043 2043 2057 2057 2057 2057 2057 2057 2057 2057 2043 2043 2043 2043 2043 2043 2043 2030 2030 2030 2030 2030 2030 2043 2043 2043 2043 2043 2043 2043 2043 2043 2043 2030 2030 2030 2016 2016 2003 1990 1602 1602 1602 1594 1585 1577 1569 1561 1561 1553 1537 1522 1500 1492 1485 1478 1471 1471 1463 1463 1463 1456 1456 1456 1456 1456 1450 1450 1450 1450 1450 1450 1450 1450 1450 1450 1450 1450 1450 1450 1450 1450 1450 1450 1450 1450 1450 1450 1450 1456 1456 1456 1456 1456 1456 1456 1456 1456 1456 1456 1456 1456 1456 1456 1463 1463 1463 1463 1463 1463 1463 1471 1471 1471 1478 1478 1478 1478 1478 1478 1485 1485 1485 1485 1492 1492 1492 1500 1500 1500 1500 1507 1507 1514 1514 1522 1530 1537 1537 1545 1553 1553 1561 1569 1585 0 0 0 0 0 1939 1927 1927 1927 1927 1927 1915 1891 1891 1879 1868 1845 1812 1770 1770 1760 1750 1750 1750 1750 1750 1750 1750 1750 1760 1760 1770 1770 1780 1791 1823 1834 1845 1856 1868 1879 1915 1939 1951 1977 2003 2057 2057 2057 2043 2043 2016 1990 1964 1951 1951 1951 1939 1939 1939 1939 1939 1939 1939 1939 1939 1939 1939 1939 1951 1939 1939 1939 1939 1939 1939 1939 1939 1939 1939 1939 1939 1927 1927 1927 1927 1927 1927 1927 1927 1927 1927 1927 1927 1927 1927 1927 1927 1927 1927 1915 1915 1915 1915 1915 1915 1915 1915 1915 1915 1915 1915 1915 1903 1903 1891 1891 1891 1879 1879 1879 1879 1879 1879 1879 1879 1879 1879 1879 1879 1879 1879 1879 1868 1868 1868 1868 1868 1868 1868 1868 1868 1868 1868 1868 1879 1879 1879 1879 1879 1879 1868 1879 1879 1868 1868 1868 0 1845 1845 1845 0 0 0 0 0 0 0 0 0 0 0 0 0 0 0 0 0 0 0 0 0 0 0 0 0 0 0 0 0 0 4684 4684 4613 4544 4477 4413 4114 4006 3954 3903 3854 3854 3854 3854 3806 3806 3806 3806 3806 3806 3854 3854 3854 3854 3854 3854 3854 3854 3854 3854 3854 3854 3854 3854 3854 3854 3854 3903 3903 3903 3903 3903 3954 3954 3903 3903 3903 3903 3903 3903 3954 0 0 0 0 0 0 0 0 0 0 0 0 0 0 0 4171 4114 4114 4114 4114 4114 4171 4229 4288 4350 4350 4350 4350 4288 4229 4171 4171 4114 4114 4114 4060 4060 4060 4060 4114 0 0 0 0 0 0 0 0 0 0 0 0 0 0 0 0 0 0 0 0 0 0 0 0 0 0 0 0 0 0 0 0 0 0 0 0 0 0 0 0 0 0 0 0 0 0 0 0 0 0 0 0 0 0 0 0 0 0 0 0 0 0 0 0 0 0 0 0 0 0 0 0 0 0 0 0 0 0 0 0 0 0 0 0 0 0 0 0 0 0 0 0 0 0 0 0 0 0 0 0 0 0 0 0
0 0 0 0 0 0 0 0 0 0 0 0 0 0 0 0 0 0 0 0 0 0 0 0 0 0 0 0 0 0 0 0 0 0 0 0 0 0 0 0 0 0 0 0 0 0 0 0 0 0 0 0 0 0 0 0 0 0 0 0 0 0 0 0 0 0 0 0 0 0 0 0 0 2043 2030 2030 2016 2016 2016 2030 2030 2043 2043 2043 2057 2057 2057 2057 2043 2043 2030 2030 2030 2030 2016 2016 2016 2016 2016 2016 2016 2030 2030 2030 2043 2043 2043 2043 2043 2043 2057 2057 2057 2057 2057 2057 2057 2057 2057 2057 2043 2043 2043 2043 2043 2043 2030 2030 2030 2030 2030 2043 2043 2043 2043 2043 2043 2043 2043 2043 2043 2043 2043 2030 2030 2030 0 0 0 0 1602 1602 1602 1594 1577 1569 1561 1561 1553 1537 1522 1500 1492 1485 1478 1471 1471 1463 1463 1463 1456 1456 1456 1456 1450 1450 1450 1450 1450 1450 1450 1450 1450 1450 1443 1443 1443 1443 1450 1450 1450 1443 1450 1450 1450 1450 1450 1450 1456 1456 1456 1456 1456 1456 1456 1456 1456 1456 1456 1456 1456 1456 1456 1456 1463 1463 1463 1463 1463 1463 1471 1471 1471 1471 1478 1478 1478 1478 1478 1485 1485 1485 1485 1485 1492 1492 1500 1500 1500 1500 1507 1507 1514 1514 1522 1530 1530 1537 1545 1545 1553 1561 1569 1585 0 0 0 0 0 1951 1939 1939 1927 1927 1927 1927 1915 1903 1891 1879 1868 1845 1812 1780 1770 1760 1760 1760 1760 1760 1760 1760 1760 1760 1770 1770 1791 1801 1823 1834 1845 1856 1868 1879 1903 1927 1939 1951 1977 2030 2057 2057 2057 2043 2043 2030 2003 1977 1964 1951 1951 1951 1951 1951 1951 1939 1939 1951 1951 1951 1951 1951 1951 1951 1951 1951 1951 1951 1951 1951 1951 1951 1939 1939 1939 1939 1927 1927 1927 1927 1927 1927 1927 1927 1927 1927 1927 1927 1927 1927 1927 1927 1927 1927 1915 1915 1915 1915 1915 1915 1915 1915 1927 1915 1915 1915 1915 1915 1903 1903 1903 1891 1891 1891 1879 1879 1879 1879 1879 1879 1879 1879 1879 1879 1879 1879 1879 1879 1879 1879 1879 1879 1868 1868 1868 1868 1879 1879 1879 1879 1879 1879 1879 1879 1879 1879 1879 1891 1891 1903 0 0 0 0 0 0 0 0 0 0 0 0 0 0 0 0 0 0 0 0 0 0 0 0 0 0 0 0 0 0 0 0 0 0 4757 4684 4684 4613 4613 4544 4477 4229 4060 3954 3903 3903 3854 3854 3854 3806 3806 3806 3806 3806 3806 3854 3854 3854 3854 3854 3854 3854 3854 3854 3854 3854 3854 3854 3854 3854 3854 3854 3903 3903 3903 3903 3954 3954 3954 3903 3903 3903 3903 3903 3903 3954 0 0 0 0 0 0 0 0 0 0 0 0 0 0 0 0 4171 4114 4114 4114 4114 4171 4229 4288 4288 4350 4288 4288 4229 4171 4171 4114 4114 4114 4060 4060 4060 4006 4006 4006 4060 0 0 0 0 0 0 0 0 0 0 0 0 0 0 0 0 0 0 0 0 0 0 0 0 0 0 0 0 0 0 0 0 0 0 0 0 0 0 0 0 0 0 0 0 0 0 0 0 0 0 0 0 0 0 0 0 0 0 0 0 0 0 0 0 0 0 0 0 0 0 0 0 0 0 0 0 0 0 0 0 0 0 0 0 0 0 0 0 0 0 0 0 0 0 0 0 0 0 0 0 0 0 0
0 0 0 0 0 0 0 0 0 0 0 0 0 0 0 0 0 0 0 0 0 0 0 0 0 0 0 0 0 0 0 0 0 0 0 0 0 0 0 0 0 0 0 0 0 0 0 0 0 0 0 0 0 0 0 0 0 0 0 0 0 0 0 0 0 0 0 0 0 0 0 0 0 2071 2030 2030 2030 2030 2030 2030 2043 2043 2043 2043 2043 2043 2057 2043 2043 2043 2030 2030 2030 2030 2030 2030 2030 2016 2016 2016 2030 2030 2030 2030 2043 2043 2043 2043 2043 2057 2057 2057 2057 2071 2071 2071 2071 2057 2057 2057 2057 2043 2043 2043 2043 2043 2030 2030 2030 2030 2043 2043 2043 2043 2043 2057 2057 2043 2043 2043 2043 2043 2043 2043 2043 0 0 0 0 0 1611 1602 1602 1594 1577 1569 1561 1561 1553 1537 1522 1500 1492 1485 1478 1471 1471 1463 1463 1456 1456 1456 1456 1456 1450 1450 1450 1450 1450 1450 1450 1443 1443 1443 1443 1443 1443 1443 1443 1443 1443 1443 1443 1450 1450 1450 1450 1450 1450 1456 1456 1456 1456 1456 1456 1456 1456 1456 1456 1456 1456 1456 1456 1456 1456 1463 1463 1463 1463 1463 1471 1471 1471 1471 1471 1478 1478 1478 1478 1485 1485 1485 1485 1485 1492 1492 1492 1500 1500 1500 1500 1507 1507 1514 1522 1522 1530 1537 1545 1545 1553 1561 1569 1577 1594 0 0 0 0 1951 1939 1939 1939 1939 1939 1927 1927 1915 1903 1891 1879 1868 1856 1823 1791 1770 1770 1770 1770 1770 1770 1770 1770 1770 1791 1812 1834 1845 1845 1856 1856 1868 1879 1903 1915 1927 1939 1951 1977 2030 2057 2057 2057 2043 2043 2043 2030 2003 1977 1964 1951 1951 1951 1951 1951 1951 1951 1951 1951 1951 1951 1951 1951 1951 1951 1951 1951 1951 1951 1951 1951 1951 1951 1939 1939 1939 1927 1927 1927 1927 1927 1927 1927 1927 1927 1927 1927 1927 1927 1927 1927 1927 1927 1927 1927 1927 1915 1915 1915 1915 1915 1927 1927 1927 1915 1915 1915 1915 1915 1915 1903 1903 1903 1891 1891 1891 1891 1891 1891 1891 1891 1891 1891 1891 1891 1891 1891 1879 1879 1879 1879 1879 1879 1879 1879 1879 1879 1879 1879 1879 1879 1879 1879 1879 1879 1879 1891 1891 0 0 0 0 0 0 0 0 0 0 0 0 0 0 0 0 0 0 0 0 0 0 0 0 0 0 0 0 0 0 0 0 0 0 0 0 4757 4684 4684 4684 4613 4544 4544 4477 4114 4006 3954 3903 3854 3854 3854 3806 3806 3806 3806 3806 3854 3854 3854 3854 3854 3854 3854 3854 3854 3854 3854 3854 3854 3854 3854 3854 3854 3854 3903 3903 3903 3903 3954 3954 3954 3954 3954 3954 3954 3954 3954 3954 0 0 0 0 0 0 0 0 0 0 0 0 0 0 0 0 0 0 4171 4171 4171 4171 4288 4288 4288 4288 4288 4288 4229 4171 4114 4114 4114 4114 4060 4060 4006 4006 4006 4006 4006 0 0 0 0 0 0 0 0 0 0 0 0 0 0 0 0 0 0 0 0 0 0 0 0 0 0 0 0 0 0 0 0 0 0 0 0 0 0 0 0 0 0 0 0 0 0 0 0 0 0 0 0 0 0 0 0 0 0 0 0 0 0 0 0 0 0 0 0 0 0 0 0 0 0 0 0 0 0 0 0 0 0 0 0 0 0 0 0 0 0 0 0 0 0 0 0 0 0 0 0 0 0 0
0 0 0 0 0 0 0 0 0 0 0 0 0 0 0 0 0 0 0 0 0 0 0 0 0 0 0 0 0 0 0 0 0 0 0 0 0 0 0 0 0 0 0 0 0 0 0 0 0 0 0 0 0 0 0 0 0 0 0 0 0 0 0 0 0 0 0 0 0 0 0 0 0 2071 2043 2030 2030 2030 2030 2030 2030 2043 2043 2043 2043 2043 2043 2043 2043 2043 2043 2030 2030 2030 2030 2030 2030 2030 2030 2030 2030 2030 2030 2043 2043 2043 2043 2043 2057 2057 2057 2057 2071 2071 2071 2071 2071 2071 2057 2057 2057 2057 2043 2043 2043 2043 2043 2043 2043 2043 2043 2043 2043 2057 2057 2057 2057 2057 2057 2057 2057 2043 2043 2043 2057 0 0 0 0 0 1611 1602 1602 1594 1577 1569 1561 1561 1553 1537 1522 1507 1492 1485 1478 1471 1463 1463 1463 1456 1456 1456 1456 1450 1450 1450 1450 1450 1450 1443 1443 1443 1443 1443 1443 1443 1443 1443 1443 1443 1443 1443 1443 1443 1450 1450 1450 1450 1450 1456 1456 1456 1456 1456 1456 1456 1456 1456 1456 1456 1456 1456 1456 1456 1456 1456 1463 1463 1463 1463 1471 1471 1471 1471 1471 1471 1478 1478 1478 1478 1485 1485 1485 1485 1492 1492 1492 1500 1500 1500 1500 1507 1507 1514 1514 1522 1530 1537 1545 1545 1553 1561 1561 1569 1585 0 0 0 0 1951 1939 1939 1939 1939 1939 1939 1927 1927 1915 1903 1891 1879 1868 1856 1845 1812 1801 1780 1780 1780 1791 1812 1812 1834 1845 1856 1856 1856 1868 1868 1879 1879 1903 1915 1927 1939 1939 1951 1977 2016 2043 2057 2057 2043 2043 2043 2030 2016 1990 1977 1964 1964 1964 1964 1951 1951 1951 1951 1951 1951 1951 1951 1951 1951 1951 1951 1951 1951 1951 1951 1951 1951 1951 1951 1939 1939 1927 1927 1927 1927 1927 1927 1927 1927 1927 1927 1939 1939 1939 1927 1927 1927 1927 1927 1927 1927 1927 1927 1915 1915 1927 1927 1927 1927 1927 1915 1915 1915 1915 1915 1915 1915 1903 1903 1903 1891 1891 1891 1891 1891 1891 1891 1891 1891 1891 1891 1891 1891 1891 1891 1891 1879 1879 1879 1879 1879 1879 1879 1879 1879 1879 1879 1879 1879 1879 1879 1891 1903 0 0 0 0 0 0 0 0 0 0 0 0 0 0 0 0 0 0 0 0 0 0 0 0 0 0 0 0 0 0 0 0 0 0 0 0 4757 4757 4684 4684 4613 4613 4544 4477 4114 4006 3954 3903 3903 3854 3854 3854 3806 3806 3806 3854 3854 3854 3854 3854 3854 3854 3854 3854 3854 3854 3854 3806 3806 3806 3806 3806 3806 3854 3854 3903 3903 3903 3954 3954 3954 3954 3954 3954 3954 3954 3954 3954 0 0 0 0 0 0 0 0 0 0 0 0 0 0 0 0 0 0 0 0 4229 4288 4350 4350 4288 4288 4288 4288 4229 4171 4114 4114 4114 4060 4060 4060 4006 4006 4006 4006 4006 0 0 0 0 0 0 0 0 0 0 0 0 0 0 0 0 0 0 0 0 0 0 0 0 0 0 0 0 0 0 0 0 0 0 0 0 0 0 0 0 0 0 0 0 0 0 0 0 0 0 0 0 0 0 0 0 0 0 0 0 0 0 0 0 0 0 0 0 0 0 0 0 0 0 0 0 0 0 0 0 0 0 0 0 0 0 0 0 0 0 0 0 0 0 0 0 0 0 0 0 0 0 0
0 0 0 0 0 0 0 0 0 0 0 0 0 0 0 0 0 0 0 0 0 0 0 0 0 0 0 0 0 0 0 0 0 0 0 0 0 0 0 0 0 0 0 0 0 0 0 0 0 0 0 0 0 0 0 0 0 0 0 0 0 0 0 0 0 0 0 0 0 0 0 0 0 2071 2057 2043 2043 2043 2030 2030 2043 2043 2043 2043 2043 2043 2043 2043 2043 2043 2043 2043 2030 2030 2030 2030 2030 2030 2030 2030 2030 2030 2043 2043 2043 2043 2043 2057 2057 2057 2057 2057 2071 2071 2071 2071 2071 2071 2071 2057 2057 2057 2043 2043 2043 2043 2043 2043 2043 2043 2043 2043 2057 2057 2057 2057 2057 2057 2057 2057 2057 2057 2057 2057 0 0 0 0 0 0 0 1602 1602 1594 1577 1569 1561 1561 1553 1545 1522 1507 1492 1485 1478 1471 1463 1463 1456 1456 1456 1456 1450 1450 1450 1450 1443 1443 1443 1443 1443 1443 1443 1443 1443 1443 1443 1443 1443 1443 1443 1443 1443 1443 1443 1450 1450 1450 1450 1450 1456 1456 1456 1456 1456 1456 1456 1456 1456 1456 1456 1456 1456 1456 1456 1456 1456 1463 1463 1463 1463 1471 1471 1471 1471 1471 1471 1478 1478 1478 1485 1485 1485 1485 1492 1492 1492 1500 1500 1500 1500 1500 1507 1507 1514 1522 1530 1537 1545 1545 1553 1553 1561 1569 1577 0 0 0 0 1951 1951 1939 1939 1939 1939 1939 1927 1927 1915 1915 1903 1891 1879 1868 1868 1856 1856 1845 1845 1845 1856 1868 1868 1868 1868 1868 1868 1879 1879 1879 1891 1903 1915 1927 1927 1939 1939 1951 1964 2003 2043 2043 2043 2043 2043 2043 2030 2030 2003 1977 1977 1964 1964 1964 1964 1964 1951 1951 1951 1951 1964 1964 1964 1964 1964 1964 1951 1951 1951 1951 1951 1951 1951 1951 1939 1939 1927 1927 1927 1927 1927 1927 1927 1927 1927 1939 1939 1939 1939 1939 1927 1927 1927 1927 1927 1927 1927 1927 1927 1927 1927 1927 1927 1927 1927 1927 1915 1915 1915 1915 1915 1915 1915 1903 1903 1903 1903 1903 1891 1891 1891 1891 1891 1891 1891 1891 1891 1891 1891 1891 1891 1891 1879 1879 1879 1879 1879 1879 1879 1879 1879 1879 1879 1879 1879 1879 1891 0 0 0 0 0 0 0 0 0 0 0 0 0 0 0 0 0 0 0 0 0 0 0 0 0 0 0 0 0 0 0 0 0 0 0 0 0 4757 4757 4684 4684 4684 4613 4544 4477 4171 4006 3954 3954 3903 3854 3854 3854 3854 3854 3854 3854 3854 3854 3854 3854 3854 3854 3854 3854 3854 3854 3806 3806 3806 3806 3806 3806 3806 3854 3854 3903 3903 3903 3954 3954 3954 3954 3954 3954 3954 3954 3954 3954 0 0 0 0 0 0 0 0 0 0 0 0 0 0 0 0 0 0 0 0 0 0 4350 4350 4288 4288 4288 4229 4229 4171 4114 4114 4114 4060 4060 4006 4006 4006 3954 3954 3954 0 0 0 0 0 0 0 0 0 0 0 0 0 0 0 0 0 0 0 0 0 0 0 0 0 0 0 0 0 0 0 0 0 0 0 0 0 0 0 0 0 0 0 0 0 0 0 0 0 0 0 0 0 0 0 0 0 0 0 0 0 0 0 0 0 0 0 0 0 0 0 0 0 0 0 0 0 0 0 0 0 0 0 0 0 0 0 0 0 0 0 0 0 0 0 0 0 0 0 0 0 0 0
0 0 0 0 0 0 0 0 0 0 0 0 0 0 0 0 0 0 0 0 0 0 0 0 0 0 0 0 0 0 0 0 0 0 0 0 0 0 0 0 0 0 0 0 0 0 0 0 0 0 0 0 0 0 0 0 0 0 0 0 0 0 0 0 0 0 0 0 0 0 0 0 0 2071 2057 2043 2043 2043 2043 2043 2043 2043 2043 2043 2043 2043 2043 2043 2043 2043 2043 2043 2043 2030 2030 2030 2043 2030 2030 2030 2043 2043 2043 2043 2043 2043 2043 2057 2057 2057 2057 2057 2071 2071 2085 2085 2085 2085 2071 2071 2057 2057 2057 2043 2043 2043 2043 2043 2043 2043 2043 2057 2057 2057 2057 2057 2071 2071 2071 2057 2071 2071 2071 0 0 0 0 0 0 0 0 1611 1602 1602 1585 1577 1569 1561 1553 1545 1530 1507 1492 1485 1471 1463 1463 1463 1456 1456 1456 1450 1450 1450 1450 1443 1443 1443 1443 1443 1443 1443 1443 1443 1443 1443 1443 1443 1443 1443 1443 1443 1443 1443 1443 1450 1450 1450 1450 1450 1450 1450 1450 1450 1450 1450 1450 1450 1450 1450 1450 1450 1456 1456 1456 1456 1456 1456 1463 1463 1463 1463 1471 1471 1471 1471 1471 1471 1478 1478 1478 1485 1485 1485 1485 1492 1492 1492 1500 1500 1500 1500 1507 1507 1514 1522 1530 1537 1545 1545 1553 1553 1561 1561 1569 1594 0 0 0 0 1951 1951 1939 1939 1939 1939 1927 1927 1915 1915 1915 1903 1891 1879 1879 1879 1868 1868 1868 1868 1868 1879 1879 1879 1879 1879 1879 1891 1891 1891 1903 1915 1915 1927 1939 1939 1951 1951 1964 2003 2043 2043 2043 2043 2043 2043 2030 2030 2016 1990 1977 1964 1964 1964 1964 1964 1964 1964 1964 1964 1964 1964 1964 1964 1964 1964 1951 1951 1951 1951 1951 1951 1951 1939 1939 1939 1927 1927 1927 1927 1927 1927 1927 1927 1927 1939 1939 1939 1939 1939 1939 1927 1927 1927 1927 1927 1927 1927 1927 1927 1927 1927 1927 1927 1927 1927 1915 1915 1915 1915 1915 1915 1915 1915 1915 1903 1903 1903 1903 1903 1903 1903 1891 1891 1891 1891 1891 1891 1891 1891 1891 1891 1891 1879 1879 1879 1879 1879 1879 1879 1879 1879 1879 1879 1879 1879 1891 0 0 0 0 0 0 0 0 0 0 0 0 0 0 0 0 0 0 0 0 0 0 0 0 0 0 0 0 0 0 0 0 0 0 0 0 0 4757 4757 4757 4684 4684 4613 4544 4544 4288 4060 4006 3954 3903 3903 3854 3854 3854 3854 3854 3854 3854 3854 3903 3903 3854 3854 3854 3854 3854 3806 3806 3806 3806 3806 3806 3806 3806 3806 3854 3903 3903 3903 3903 3954 3954 3954 3954 3954 3954 3954 3954 3954 0 0 0 0 0 0 0 0 0 0 0 0 0 0 0 0 0 0 0 0 0 0 0 4350 4288 4288 4288 4229 4229 4171 4171 4114 4114 4114 4060 4006 4006 4006 4006 4006 4006 0 0 0 0 0 0 0 0 0 0 0 0 0 0 0 0 0 0 0 0 0 0 0 0 0 0 0 0 0 0 0 0 0 0 0 0 0 0 0 0 0 0 0 0 0 0 0 0 0 0 0 0 0 0 0 0 0 0 0 0 0 0 0 0 0 0 0 0 0 0 0 0 0 0 0 0 0 0 0 0 0 0 0 0 0 0 0 0 0 0 0 0 0 0 0 0 0 0 0 0 0 0 0
0 0 0 0 0 0 0 0 0 0 0 0 0 0 0 0 0 0 0 0 0 0 0 0 0 0 0 0 0 0 0 0 0 0 0 0 0 0 0 0 0 0 0 0 0 0 0 0 0 0 0 0 0 0 0 0 0 0 0 0 0 0 0 0 0 0 0 0 0 0 0 0 0 2071 2071 2057 2043 2043 2043 2043 2043 2043 2043 2043 2043 2043 2043 2043 2043 2043 2043 2043 2043 2043 2043 2043 2043 2043 2043 2043 2043 2043 2043 2043 2043 2043 2043 2057 2057 2057 2057 2071 2071 2085 2085 2085 2085 2085 2085 2085 2071 2057 2057 2057 2043 2043 2043 2043 2043 2043 2057 2057 2071 2071 2071 2071 2071 2071 2071 2071 2071 0 0 0 0 0 0 0 0 0 0 0 1611 1602 1594 1585 1577 1569 1561 1553 1530 1507 1485 1478 1471 1463 1463 1456 1456 1456 1450 1450 1450 1443 1443 1443 1443 1443 1443 1443 1443 1443 1443 1443 1443 1443 1443 1443 1443 1443 1443 1443 1443 1443 1443 1443 1443 1450 1450 1450 1450 1450 1450 1450 1450 1450 1443 1443 1443 1450 1450 1450 1450 1450 1450 1450 1456 1456 1456 1456 1463 1463 1463 1463 1471 1471 1471 1471 1471 1478 1478 1485 1485 1485 1485 1492 1492 1492 1500 1500 1500 1500 1500 1507 1514 1522 1530 1537 1537 1545 1553 1553 1553 1561 1569 1577 0 0 0 0 1951 1951 1951 1939 1939 1927 1927 1927 1927 1915 1915 1915 1903 1891 1891 1879 1879 1879 1879 1891 1891 1891 1891 1891 1891 1903 1903 1903 1903 1903 1915 1915 1927 1939 1939 1939 1951 1951 1964 1977 2030 2043 2043 2043 2043 2043 2030 2030 2016 2003 1977 1977 1964 1964 1964 1964 1964 1964 1964 1964 1964 1964 1964 1964 1964 1964 1951 1951 1951 1951 1951 1951 1939 1939 1939 1927 1927 1927 1927 1927 1927 1927 1927 1927 1927 1927 1927 1939 1939 1939 1939 1939 1927 1927 1927 1927 1927 1927 1927 1927 1927 1927 1927 1927 1927 1915 1915 1915 1915 1915 1915 1915 1915 1915 1915 1915 1915 1915 1903 1903 1903 1903 1903 1903 1903 1903 1903 1891 1891 1891 1891 1891 1891 1891 1879 1879 1879 1879 1879 1879 1879 1879 1879 1879 1879 1879 1879 1891 0 0 0 0 0 0 0 0 0 0 0 0 0 0 0 0 0 0 0 0 0 0 0 0 0 0 0 0 0 0 0 0 0 0 0 0 4833 4757 4757 4684 4684 4613 4613 4544 4288 4060 4006 3954 3903 3903 3903 3854 3854 3854 3854 3854 3903 3903 3903 3903 3903 3903 3854 3854 3854 3806 3806 3806 3806 3806 3806 3806 3806 3806 3854 3903 3903 3903 3903 3903 3903 3903 3954 3954 3954 3954 3954 0 0 0 0 0 0 0 0 0 0 0 0 0 0 0 0 0 0 0 0 0 0 0 0 0 4350 4288 4288 4229 4229 4171 4171 4171 4114 4114 4114 4060 4006 4006 4006 4006 4006 0 0 0 0 0 0 0 0 0 0 0 0 0 0 0 0 0 0 0 0 0 0 0 0 0 0 0 0 0 0 0 0 0 0 0 0 0 0 0 0 0 0 0 0 0 0 0 0 0 0 0 0 0 0 0 0 0 0 0 0 0 0 0 0 0 0 0 0 0 0 0 0 0 0 0 0 0 0 0 0 0 0 0 0 0 0 0 0 0 0 0 0 0 0 0 0 0 0 0 0 0 0 0
0 0 0 0 0 0 0 0 0 0 0 0 0 0 0 0 0 0 0 0 0 0 0 0 0 0 0 0 0 0 0 0 0 0 0 0 0 0 0 0 0 0 0 0 0 0 0 0 0 0 0 0 0 0 0 0 0 0 0 0 0 0 0 0 0 0 0 0 0 0 0 0 0 2085 2071 2057 2043 2043 2043 2043 2043 2043 2043 2043 2030 2043 2043 2043 2043 2043 2043 2043 2043 2043 2043 2043 2043 2043 2043 2043 2043 2043 2043 2043 2043 2043 2057 2057 2057 2057 2057 2057 2071 2085 2085 2085 2085 2085 2100 2085 2085 2071 2071 2057 2057 2057 2043 2043 2057 2057 2071 2071 0 0 0 0 0 0 0 0 0 0 0 0 0 0 0 0 0 0 0 0 0 0 1611 1602 1594 1577 1561 1553 1537 1507 1485 1471 1471 1463 1463 1456 1456 1450 1450 1450 1443 1443 1443 1443 1443 1443 1443 1443 1436 1443 1443 1443 1443 1443 1443 1443 1443 1443 1443 1443 1443 1443 1443 1443 1443 1443 1450 1450 1450 1443 1443 1443 1443 1443 1443 1443 1443 1443 1443 1450 1450 1450 1450 1450 1456 1456 1456 1456 1456 1456 1456 1463 1463 1463 1471 1471 1471 1471 1478 1478 1485 1485 1485 1492 1492 1492 1492 1500 1500 1500 1500 1507 1514 1522 1522 1530 1537 1545 1545 1553 1553 1561 1561 1569 0 0 0 0 0 1951 1939 1939 1927 1927 1927 1927 1927 1927 1927 1915 1915 1915 1903 1903 1903 1903 1903 1903 1903 1903 1903 1903 1903 1903 1903 1903 1915 1915 1927 1927 1939 1939 1939 1939 1951 1951 1964 1977 2016 2043 2043 2043 2043 2043 2030 2030 2016 2003 1977 1977 1977 1964 1964 1964 1964 1964 1964 1964 1964 1964 1964 1964 1964 1964 1951 1951 1951 1951 1951 1939 1939 1939 1927 1927 1927 1927 1927 1927 1927 1927 1927 1927 1927 1927 1927 1927 1939 1939 1939 1939 1939 1927 1927 1927 1927 1927 1927 1927 1927 1927 1927 1927 1927 1915 1915 1915 1915 1915 1915 1915 1915 1915 1915 1915 1915 1915 1915 1915 1915 1915 1915 1915 1915 1915 1903 1903 1903 1891 1891 1891 1891 1891 1879 1879 1879 1879 1879 1879 1879 1879 1879 1879 1879 1879 1879 1891 0 0 0 0 0 0 0 0 0 0 0 0 0 0 0 0 0 0 0 0 0 0 0 0 0 0 0 0 0 0 0 0 0 0 0 0 0 4833 4757 4757 4684 4684 4613 4544 4288 4060 4006 3954 3903 3903 3903 3903 3854 3854 3854 3903 3903 3903 3903 3903 3903 3903 3854 3854 3854 3806 3806 3806 3806 3806 3806 3806 3806 3806 3854 3854 3903 3903 3903 3903 3903 3903 3903 3954 3954 3954 3954 0 0 0 0 0 0 0 0 0 0 0 0 0 0 0 0 0 0 0 0 0 0 0 0 0 0 4350 4288 4229 4229 4229 4229 4171 4171 4114 4114 4114 4060 4006 4006 4006 0 0 0 0 0 0 0 0 0 0 0 0 0 0 0 0 0 0 0 0 0 0 0 0 0 0 0 0 0 0 0 0 0 0 0 0 0 0 0 0 0 0 0 0 0 0 0 0 0 0 0 0 0 0 0 0 0 0 0 0 0 0 0 0 0 0 0 0 0 0 0 0 0 0 0 0 0 0 0 0 0 0 0 0 0 0 0 0 0 0 0 0 0 0 0 0 0 0 0 0 0 0 0 0
0 0 0 0 0 0 0 0 0 0 0 0 0 0 0 0 0 0 0 0 0 0 0 0 0 0 0 0 0 0 0 0 0 0 0 0 0 0 0 0 0 0 0 0 0 0 0 0 0 0 0 0 0 0 0 0 0 0 0 0 0 0 0 0 0 0 0 0 0 0 0 0 0 2085 2071 2057 2057 2043 2043 2043 2043 2043 2043 2030 2030 2043 2043 2043 2043 2043 2043 2043 2043 2043 2043 2043 2043 2043 2043 2043 2043 2043 2043 2043 2043 2057 2057 2057 2057 2057 2057 2057 2071 2085 2085 2085 2100 2100 2100 2114 2114 2114 2114 2114 2114 0 0 0 0 0 0 0 0 0 0 0 0 0 0 0 0 0 0 0 0 0 0 0 0 0 0 0 0 0 0 0 0 0 0 0 1553 1522 1492 1478 1471 1463 1463 1456 1456 1450 1450 1450 1443 1443 1443 1443 1443 1443 1436 1436 1436 1436 1443 1443 1443 1443 1443 1443 1443 1443 1443 1443 1443 1443 1443 1443 1443 1443 1450 1450 1450 1443 1443 1443 1443 1443 1436 1436 1436 1436 1443 1443 1450 1450 1450 1450 1450 1456 1456 1456 1456 1456 1456 1456 1456 1463 1463 1463 1471 1471 1478 1478 1478 1485 1485 1485 1492 1492 1492 1500 1500 1500 1500 1507 1514 1514 1522 1530 1537 1545 1545 1553 1553 1561 1561 1569 1602 0 0 0 0 1951 1939 1939 1927 1927 1927 1927 1927 1927 1927 1927 1915 1915 1915 1915 1915 1915 1915 1915 1915 1915 1915 1915 1915 1915 1915 1915 1927 1927 1927 1939 1939 1939 1939 1951 1951 1964 1977 1990 2016 2043 2043 2043 2043 2043 2030 2030 2016 2003 1977 1977 1977 1964 1964 1964 1964 1964 1964 1964 1964 1964 1964 1964 1964 1951 1951 1951 1951 1951 1939 1939 1939 1939 1927 1927 1927 1927 1927 1927 1927 1927 1927 1927 1927 1927 1927 1927 1939 1939 1939 1939 1939 1939 1939 1927 1927 1927 1927 1927 1927 1927 1927 1927 1927 1915 1915 1915 1915 1915 1915 1915 1915 1915 1915 1915 1915 1915 1915 1915 1915 1915 1915 1915 1915 1915 1915 1915 1903 1903 1891 1891 1891 1891 1879 1879 1879 1879 1879 1879 1879 1879 1879 1879 1879 1879 1879 1891 0 0 0 0 0 0 0 0 0 0 0 0 0 0 0 0 0 0 0 0 0 0 0 0 0 0 0 0 0 0 0 0 0 0 0 0 0 0 4833 4757 4757 4684 4613 4544 4288 4060 4006 3954 3903 3903 3903 3903 3854 3854 3903 3903 3903 3903 3903 3903 3903 3903 3903 3854 3854 3806 3806 3806 3806 3806 3806 3806 3806 3806 3854 3854 3903 3903 3903 3903 3903 3903 3903 3903 3954 3954 0 0 0 0 0 0 0 0 0 0 0 0 0 0 0 0 0 0 0 0 0 0 0 0 0 0 0 0 4350 4288 4229 4229 4229 4229 4171 4171 4171 4171 4114 4114 4114 4229 0 0 0 0 0 0 0 0 0 0 0 0 0 0 0 0 0 0 0 0 0 0 0 0 0 0 0 0 0 0 0 0 0 0 0 0 0 0 0 0 0 0 0 0 0 0 0 0 0 0 0 0 0 0 0 0 0 0 0 0 0 0 0 0 0 0 0 0 0 0 0 0 0 0 0 0 0 0 0 0 0 0 0 0 0 0 0 0 0 0 0 0 0 0 0 0 0 0 0 0 0 0 0 0
0 0 0 0 0 0 0 0 0 0 0 0 0 0 0 0 0 0 0 0 0 0 0 0 0 0 0 0 0 0 0 0 0 0 0 0 0 0 0 0 0 0 0 0 0 0 0 0 0 0 0 0 0 0 0 0 0 0 0 0 0 0 0 0 0 0 0 0 0 0 0 0 2272 2100 2071 2071 2057 2043 2043 2043 2043 2043 2043 2043 2043 2043 2043 2043 2043 2043 2043 2043 2043 2043 2043 2043 2057 2057 2057 2057 2057 2057 2043 2057 2057 2057 2057 2057 2057 2057 2057 2071 2085 2085 2100 2100 2114 2114 2129 2129 2144 0 0 0 0 0 0 0 0 0 0 0 0 0 0 0 0 0 0 0 0 0 0 0 0 0 0 0 0 0 0 0 0 0 0 0 0 0 0 0 0 0 0 1485 1485 1478 1471 1463 1456 1456 1450 1450 1443 1443 1443 1443 1443 1443 1436 1436 1436 1436 1443 1443 1443 1443 1443 1443 1443 1443 1443 1443 1443 1443 1443 1443 1443 1450 1450 1450 1450 1443 1443 1443 1443 1436 1436 1436 1436 1436 1436 1443 1443 1450 1450 1450 1450 1450 1450 1456 1456 1456 1456 1456 1456 1456 1456 1463 1463 1471 1471 1478 1478 1478 1485 1485 1492 1492 1492 1492 1500 1500 1500 1507 1514 1514 1522 1530 1537 1545 1545 1553 1553 1561 1561 1577 1611 0 0 0 0 0 1951 1939 1939 1939 1939 1939 1927 1927 1927 1927 1927 1927 1927 1927 1927 1927 1927 1927 1927 1927 1927 1927 1927 1927 1927 1927 1927 1939 1939 1939 1939 1939 1951 1951 1951 1964 1977 2003 2043 2043 2043 2043 2043 2043 2030 2030 2016 2003 1977 1977 1977 1964 1964 1964 1964 1964 1964 1964 1964 1964 1964 1964 1951 1951 1951 1951 1939 1939 1939 1939 1939 1927 1927 1927 1927 1927 1927 1927 1927 1927 1927 1927 1927 1927 1927 1939 1939 1939 1939 1939 1939 1939 1939 1939 1927 1927 1927 1927 1927 1927 1927 1927 1915 1915 1915 1915 1915 1915 1915 1915 1915 1915 1915 1915 1915 1915 1927 1927 1927 1927 1927 1927 1927 1915 1915 1915 1915 1903 1903 1891 1891 1891 1879 1879 1879 1879 1879 1879 1879 1879 1879 1879 1879 1879 1891 1903 0 0 0 0 0 0 0 0 0 0 0 0 0 0 0 0 0 0 0 0 0 0 0 0 0 0 0 0 0 0 0 0 0 0 0 0 0 0 0 4833 4757 4757 4684 4544 4288 4006 3954 3954 3903 3903 3903 3903 3854 3903 3903 3903 3903 3903 3903 3903 3903 3903 3903 3854 3854 3854 3806 3806 3806 3806 3806 3806 3806 3806 3854 3854 3903 3903 3903 3903 3903 3903 3903 3903 3954 3954 0 0 0 0 0 0 0 0 0 0 0 0 0 0 0 0 0 0 0 0 0 0 0 0 0 0 0 0 0 4288 4229 4229 4229 4229 4229 4229 4229 4229 4229 4229 4229 4413 0 0 0 0 0 0 0 0 0 0 0 0 0 0 0 0 0 0 0 0 0 0 0 0 0 0 0 0 0 0 0 0 0 0 0 0 0 0 0 0 0 0 0 0 0 0 0 0 0 0 0 0 0 0 0 0 0 0 0 0 0 0 0 0 0 0 0 0 0 0 0 0 0 0 0 0 0 0 0 0 0 0 0 0 0 0 0 0 0 0 0 0 0 0 0 0 0 0 0 0 0 0 0 0
0 0 0 0 0 0 0 0 0 0 0 0 0 0 0 0 0 0 0 0 0 0 0 0 0 0 0 0 0 0 0 0 0 0 0 0 0 0 0 0 0 0 0 0 0 0 0 0 0 0 0 0 0 0 0 0 0 0 0 0 0 0 0 0 0 0 0 0 0 0 0 0 2306 2144 2100 2071 2057 2057 2043 2043 2043 2043 2043 2043 2043 2043 2043 2043 2043 2043 2043 2043 2043 2043 2057 2057 2057 2057 2057 2057 2057 2057 2057 2057 2057 2057 2057 2057 2057 2057 2071 2071 2085 2100 2114 2129 0 0 0 0 0 0 0 0 0 0 0 0 0 0 0 0 0 0 0 0 0 0 0 0 0 0 0 0 0 0 0 0 0 0 0 0 0 0 0 0 0 0 0 0 0 0 0 0 0 0 0 0 0 0 1456 1450 1450 1443 1443 1443 1443 1443 1436 1436 1436 1436 1443 1443 1443 1443 1443 1443 1443 1443 1443 1443 1443 1443 1443 1450 1450 1450 1450 1450 1450 1450 1443 1443 1443 1436 1436 1429 1429 1429 1429 1429 1443 1450 1450 1450 1450 1450 1450 1450 1450 1450 1450 1450 1450 1450 1456 1456 1456 1463 1471 1471 1478 1478 1485 1485 1492 1492 1492 1492 1500 1500 1500 1507 1514 1514 1522 1530 1537 1537 1545 1553 1553 1561 1561 1585 0 0 0 0 0 0 0 1939 1939 1939 1939 1939 1939 1939 1939 1939 1939 1939 1939 1939 1939 1939 1939 1939 1939 1939 1939 1927 1927 1927 1939 1939 1939 1939 1939 1939 1951 1951 1951 1964 1964 1977 2003 2030 2057 2057 2057 2057 2057 2043 2043 2030 2016 2003 1977 1977 1977 1964 1964 1964 1964 1964 1964 1964 1964 1951 1951 1951 1951 1951 1951 1939 1939 1939 1939 1939 1939 1927 1927 1927 1927 1927 1927 1927 1927 1927 1927 1927 1927 1927 1927 1939 1939 1939 1939 1939 1939 1939 1939 1939 1939 1927 1927 1927 1927 1927 1927 1927 1915 1915 1915 1915 1915 1915 1915 1915 1915 1915 1915 1915 1915 1927 1927 1927 1927 1927 1927 1927 1927 1915 1915 1915 1915 1915 1903 1891 1891 1891 1879 1879 1879 1879 1879 1879 1879 1879 1879 1879 1879 1879 1891 1903 0 0 0 0 0 0 0 0 0 0 0 0 0 0 0 0 0 0 0 0 0 0 0 0 0 0 0 0 0 0 0 0 0 0 0 0 0 0 0 0 4833 4833 4684 4613 4350 4006 3954 3954 3903 3903 3903 3854 3854 3903 3903 3903 3903 3903 3903 3903 3903 3903 3903 3854 3854 3854 3854 3806 3806 3806 3806 3806 3806 3854 3854 3854 3903 3903 3903 3903 3903 3903 3903 3903 3903 3954 0 0 0 0 0 0 0 0 0 0 0 0 0 0 0 0 0 0 0 0 0 0 0 0 0 0 0 0 0 4288 4288 4229 4288 4288 4288 4288 4288 4288 4288 4288 4350 0 0 0 0 0 0 0 0 0 0 0 0 0 0 0 0 0 0 0 0 0 0 0 0 0 0 0 0 0 0 0 0 0 0 0 0 0 0 0 0 0 0 0 0 0 0 0 0 0 0 0 0 0 0 0 0 0 0 0 0 0 0 0 0 0 0 0 0 0 0 0 0 0 0 0 0 0 0 0 0 0 0 0 0 0 0 0 0 0 0 0 0 0 0 0 0 0 0 0 0 0 0 0 0 0
0 0 0 0 0 0 0 0 0 0 0 0 0 0 0 0 0 0 0 0 0 0 0 0 0 0 0 0 0 0 0 0 0 0 0 0 0 0 0 0 0 0 0 0 0 0 0 0 0 0 0 0 0 0 0 0 0 0 0 0 0 0 0 0 0 0 0 0 0 0 0 2324 2272 2175 2100 2085 2071 2057 2057 2043 2043 2043 2043 2043 2043 2043 2043 2043 2043 2043 2043 2043 2043 2057 2057 2057 2057 2057 2057 2057 2057 2057 2057 2057 2057 2057 2057 2057 2057 2071 2071 2085 2100 0 0 0 0 0 0 0 0 0 0 0 0 0 0 0 0 0 0 0 0 0 0 0 0 0 0 0 0 0 0 0 0 0 0 0 0 0 0 0 0 0 0 0 0 0 0 0 0 0 0 0 0 0 0 0 0 0 0 0 0 0 1443 1443 1443 1443 1443 1443 1443 1443 1443 1443 1443 1443 1443 1443 1443 1443 1443 1443 1443 1443 0 0 0 0 0 0 0 0 0 0 0 1436 1436 1429 1429 1429 1429 1429 1436 1450 1450 1450 1450 1450 1450 1450 1443 1443 1436 1436 1436 1443 1443 1450 1450 1456 1463 1471 1478 1478 1485 1485 1492 1492 1492 1492 1500 1500 1507 1507 1514 1514 1522 1530 1537 1537 1545 1553 1553 1561 1569 1585 0 0 0 0 0 0 0 0 0 1964 1951 1951 1951 1951 1951 1951 1951 1951 1951 1951 1951 1939 1939 1939 1939 1939 1939 1939 1939 1939 1939 1939 1939 1939 1951 1951 1951 1964 1964 1977 1990 2003 2030 2071 2129 2129 2190 2190 2100 2057 2043 2030 2016 2003 1990 1977 1977 1964 1964 1964 1964 1964 1951 1951 1951 1951 1951 1951 1951 1951 1939 1939 1939 1939 1939 1939 1927 1927 1927 1927 1927 1927 1927 1927 1927 1927 1927 1927 1927 1927 1939 1939 1939 1939 1939 1939 1939 1939 1939 1939 1939 1927 1927 1927 1927 1927 1927 1915 1915 1903 1903 1903 1903 1903 1915 1915 1915 1915 1915 1915 1915 1927 1927 1927 1927 1927 1927 1927 1927 1915 1915 1915 1915 1915 1903 1903 1891 1891 1891 1879 1879 1879 1879 1879 1879 1879 1879 1879 1879 1891 1891 1915 0 0 0 0 0 0 0 0 0 0 0 0 0 0 0 0 0 0 0 0 0 0 0 0 0 0 0 0 0 0 0 0 0 0 0 0 0 0 0 0 0 0 0 4684 4544 4006 3954 3954 3903 3903 3854 3854 3854 3903 3903 3903 3903 3903 3903 3903 3903 3903 3903 3854 3854 3854 3854 3854 3806 3854 3854 3854 3854 3854 3854 3903 3903 3903 3903 3903 3903 3903 3903 3903 3903 3954 0 0 0 0 0 0 0 0 0 0 0 0 0 0 0 0 0 0 0 0 0 0 0 0 0 0 0 0 0 0 4288 4288 4288 4288 4288 4350 4350 4350 4350 4350 4477 0 0 0 0 0 0 0 0 0 0 0 0 0 0 0 0 0 0 0 0 0 0 0 0 0 0 0 0 0 0 0 0 0 0 0 0 0 0 0 0 0 0 0 0 0 0 0 0 0 0 0 0 0 0 0 0 0 0 0 0 0 0 0 0 0 0 0 0 0 0 0 0 0 0 0 0 0 0 0 0 0 0 0 0 0 0 0 0 0 0 0 0 0 0 0 0 0 0 0 0 0 0 0 0 0
0 0 0 0 0 0 0 0 0 0 0 0 0 0 0 0 0 0 0 0 0 0 0 0 0 0 0 0 0 0 0 0 0 0 0 0 0 0 0 0 0 0 0 0 0 0 0 0 0 0 0 0 0 0 0 0 0 0 0 0 0 2360 2360 2360 2342 2342 2342 2342 2342 2342 2324 2324 2272 2175 2129 2100 2085 2057 2057 2057 2043 2043 2043 2043 2043 2043 2043 2043 2043 2043 2043 2043 2043 2057 2057 2057 2057 2057 2057 2057 2057 2057 2057 2057 2057 2057 2057 2057 2071 2071 2085 0 0 0 0 0 0 0 0 0 0 0 0 0 0 0 0 0 0 0 0 0 0 0 0 0 0 0 0 0 0 0 0 0 0 0 0 0 0 0 0 0 0 0 0 0 0 0 0 0 0 0 0 0 0 0 0 0 0 0 0 0 0 0 0 0 0 0 0 0 0 0 0 0 0 0 0 0 0 0 0 0 0 0 0 0 0 0 0 0 0 0 0 0 0 0 0 1436 1429 1422 1422 1429 1429 1450 0 1450 1450 1450 1443 1443 1436 1436 1436 1429 1436 1436 1436 1443 1443 1450 1456 1471 1471 1478 1478 1485 1492 1492 1492 1500 1500 1500 1507 1507 1514 1514 1522 1530 1530 1537 1545 1553 1553 1561 1569 1594 0 0 0 0 0 0 0 0 0 0 0 2324 2324 2306 2238 1990 1977 1964 1964 1951 1951 1951 1951 1951 1951 1951 1939 1939 1939 1939 1951 1951 1951 1951 1964 1990 2003 2016 2016 2030 2030 2071 2159 2175 2190 2190 2190 2190 2190 2129 2057 2043 2030 2003 1990 1977 1977 1964 1964 1964 1964 1951 1951 1951 1951 1951 1951 1951 1951 1951 1939 1939 1939 1939 1939 1939 1927 1927 1927 1927 1927 1927 1927 1927 1927 1927 1927 1927 1927 1939 1939 1939 1939 1939 1939 1939 1939 1939 1939 1939 1939 1939 1927 1927 1927 1927 1927 1915 1903 1903 1903 1903 1903 1903 1903 1903 1915 1915 1915 1915 1915 1927 1927 1927 1927 1927 1927 1927 1927 1915 1915 1915 1915 1915 1903 1903 1891 1891 1891 1879 1879 1879 1879 1879 1879 1879 1879 1891 1891 1891 1903 1915 0 0 0 0 0 0 0 0 0 0 0 0 0 0 0 0 0 0 0 0 0 0 0 0 0 0 0 0 0 0 0 0 0 0 0 0 0 0 0 0 0 0 0 0 4613 4006 3954 3954 3903 3903 3854 3854 3854 3903 3903 3903 3903 3903 3903 3903 3903 3903 3903 3854 3854 3854 3854 3854 3854 3854 3854 3854 3854 3854 3903 3903 3903 3903 3903 3903 3903 3903 3854 3854 3903 3903 0 0 0 0 0 0 0 0 0 0 0 0 0 0 0 0 0 0 0 0 0 0 0 0 0 0 0 0 0 0 0 4350 4350 4350 4350 4350 4350 4413 4413 4413 0 0 0 0 0 0 0 0 0 0 0 0 0 0 0 0 0 0 0 0 0 0 0 0 0 0 0 0 0 0 0 0 0 0 0 0 0 0 0 0 0 0 0 0 0 0 0 0 0 0 0 0 0 0 0 0 0 0 0 0 0 0 0 0 0 0 0 0 0 0 0 0 0 0 0 0 0 0 0 0 0 0 0 0 0 0 0 0 0 0 0 0 0 0 0 0 0 0 0 0 0 0 0 0 0 0
0 0 0 0 0 0 0 0 0 0 0 0 0 0 0 0 0 0 0 0 0 0 0 0 0 0 0 0 0 0 0 0 0 0 0 0 0 0 0 0 0 0 0 0 0 0 0 0 0 0 0 0 0 0 0 0 0 0 2342 2342 2342 2342 2342 2342 2342 2342 2342 2342 2342 2324 2324 2306 2238 2175 2144 2100 2085 2071 2057 2057 2057 2043 2043 2043 2043 2043 2043 2043 2043 2043 2043 2057 2057 2057 2057 2057 2057 2057 2057 2057 2057 2057 2057 2057 2057 2057 2057 2071 2071 2085 0 0 0 0 0 0 0 0 0 0 0 0 0 0 0 0 0 0 0 0 0 0 0 0 0 0 0 0 0 0 0 0 0 0 0 0 0 0 0 0 0 0 0 0 0 0 0 0 0 0 0 0 0 0 0 0 0 0 0 0 0 0 0 0 0 0 0 0 0 0 0 0 0 0 0 0 0 0 0 0 0 0 0 0 0 0 0 0 0 0 0 0 0 0 0 0 0 0 0 1429 1429 1429 1429 0 0 0 1450 1436 1436 1436 1422 1422 1422 1422 1422 1429 1436 1436 1443 1443 1450 1463 1471 1478 1478 1485 1492 1492 1492 1500 1500 1500 1507 1507 1514 1522 1522 1530 1537 1537 1545 1553 1553 1561 1577 0 0 0 0 0 0 0 0 0 0 0 0 2324 2324 2324 2324 2306 2255 2222 2222 2206 2190 2190 2190 2190 1977 1964 1951 1951 1951 1951 1964 2190 2190 2190 2144 2144 2144 2144 2144 2144 2144 2159 2190 2190 2206 2206 2206 2206 2206 2190 2129 2057 2043 2016 1990 1977 1977 1964 1964 1964 1951 1951 1951 1951 1951 1951 1951 1951 1951 1939 1939 1939 1939 1939 1939 1939 1939 1927 1927 1927 1927 1927 1927 1927 1927 1927 1927 1927 1939 1939 1939 1939 1939 1939 1939 1939 1939 1939 1939 1939 1939 1939 1939 1939 1927 1927 1927 1903 1903 1903 1891 1891 1903 1903 1903 1903 1903 1915 1915 1915 1915 1915 1927 1927 1927 1927 1927 1915 1915 1915 1915 1915 1915 1903 1903 1903 1891 1891 1891 1891 1879 1879 1879 1879 1879 1879 1891 1891 1891 1903 1903 1927 0 0 0 0 0 0 0 0 0 0 0 0 0 0 0 0 0 0 0 0 0 0 0 0 0 0 0 0 0 0 0 0 0 0 0 0 0 0 0 0 0 0 0 0 0 4060 3954 3954 3903 3903 3854 3854 3854 3854 3903 3903 3903 3903 3903 3903 3903 3903 3854 3854 3854 3854 3854 3854 3854 3854 3854 3854 3854 3854 3903 3903 3903 3903 3903 3903 3903 3854 3854 3854 3854 3854 0 0 0 0 0 0 0 0 0 0 0 0 0 0 0 0 0 0 0 0 0 0 0 0 0 0 0 0 0 0 0 4413 4413 4350 4350 4413 4413 4413 4413 4477 0 0 0 0 0 0 0 0 0 0 0 0 0 0 0 0 0 0 0 0 0 0 0 0 0 0 0 0 0 0 0 0 0 0 0 0 0 0 0 0 0 0 0 0 0 0 0 0 0 0 0 0 0 0 0 0 0 0 0 0 0 0 0 0 0 0 0 0 0 0 0 0 0 0 0 0 0 0 0 0 0 0 0 0 0 0 0 0 0 0 0 0 0 0 0 0 0 0 0 0 0 0 0 0 0 0
0 0 0 0 0 0 0 0 0 0 0 0 0 0 0 0 0 0 0 0 0 0 0 0 0 0 0 0 0 0 0 0 0 0 0 0 0 0 0 0 0 0 0 0 0 0 0 0 0 0 0 0 0 0 0 0 0 2342 2342 2342 2342 2342 2342 2342 2342 2342 2342 2342 2324 2324 2324 2289 2238 2175 2144 2114 2100 2085 2071 2057 2057 2057 2043 2043 2043 2043 2043 2043 2043 2043 2057 2057 2057 2057 2057 2057 2057 2057 2057 2057 2057 2057 2057 2057 2057 2057 2071 2071 2071 0 0 0 0 0 0 0 0 0 0 0 0 0 0 0 0 0 0 0 0 0 0 0 0 0 0 0 0 0 0 0 0 0 0 0 0 0 0 0 0 0 0 0 0 0 0 0 0 0 0 0 0 0 0 0 0 0 0 0 0 0 0 0 0 0 0 0 0 0 0 0 0 0 0 0 0 0 0 0 0 0 0 0 0 0 0 0 0 0 0 0 0 0 0 0 0 0 0 0 0 0 0 0 0 0 0 1429 1429 1422 1422 1422 1422 1422 1422 1416 1416 1422 1429 1436 1436 1443 1443 1456 1463 1471 1478 1485 1492 1492 1500 1500 1500 1507 1507 1507 1514 1522 1522 1530 1537 1537 1545 1553 1553 1569 1594 0 0 0 0 0 0 0 0 0 0 0 0 2342 2342 2324 2324 2324 2306 2289 2272 2255 2238 2222 2222 2222 2222 2206 2206 2206 2206 2206 2222 2222 2222 2222 2206 2206 2190 2190 2190 2190 2190 2190 2206 2222 2222 2222 2222 2222 2206 2190 2190 2100 2057 2030 2003 1990 1977 1964 1964 1964 1951 1951 1951 1951 1951 1951 1951 1951 1951 1939 1939 1939 1939 1939 1939 1939 1939 1927 1927 1927 1927 1927 1927 1927 1927 1927 1927 1927 1939 1939 1939 1939 1939 1939 1939 1939 1939 1939 1939 1939 1939 1939 1939 1939 1939 1927 1927 1915 1903 1903 1891 1891 1891 1903 1903 1903 1903 1903 1915 1915 1915 1915 1915 1915 1915 1915 1915 1915 1915 1915 1915 1915 1903 1903 1903 1903 1891 1891 1891 1891 1891 1891 1891 1891 1891 1891 1891 1891 1903 1903 1915 1927 0 0 0 0 0 0 0 0 0 0 0 0 0 0 0 0 0 0 0 0 0 0 0 0 0 0 0 0 0 0 0 0 0 0 0 0 0 0 0 0 0 0 0 0 0 0 3954 3954 3903 3903 3903 3854 3854 3854 3854 3854 3903 3903 3903 3903 3854 3854 3854 3806 3806 3806 3854 3854 3854 3854 3854 3854 3854 3903 3903 3903 3903 3903 3903 3903 3903 3854 3854 3854 3854 3854 0 0 0 0 0 0 0 0 0 0 0 0 0 0 0 0 0 0 0 0 0 0 0 0 0 0 0 0 0 0 0 4613 4413 4413 4413 4413 4413 4477 4477 4544 0 0 0 0 0 0 0 0 0 0 0 0 0 0 0 0 0 0 0 0 0 0 0 0 0 0 0 0 0 0 0 0 0 0 0 0 0 0 0 0 0 0 0 0 0 0 0 0 0 0 0 0 0 0 0 0 0 0 0 0 0 0 0 0 0 0 0 0 0 0 0 0 0 0 0 0 0 0 0 0 0 0 0 0 0 0 0 0 0 0 0 0 0 0 0 0 0 0 0 0 0 0 0 0 0 0
0 0 0 0 0 0 0 0 0 0 0 0 0 0 0 0 0 0 0 0 0 0 0 0 0 0 0 0 0 0 0 0 0 0 0 0 0 0 0 0 0 0 0 0 0 0 0 0 0 0 0 0 0 0 0 0 2360 2342 2324 2324 2342 2342 2342 2342 2342 2342 2342 2324 2324 2324 2306 2272 2222 2175 2144 2114 2100 2085 2071 2071 2057 2057 2057 2057 2043 2043 2043 2043 2057 2057 2057 2057 2057 2057 2057 2057 2057 2057 2057 2057 2057 2057 2057 2057 2057 2057 2071 2071 0 0 0 0 0 0 0 0 0 0 0 0 0 0 0 0 0 0 0 0 0 0 0 0 0 0 0 0 0 0 0 0 0 0 0 0 0 0 0 0 0 0 0 0 0 0 0 0 0 0 0 0 0 0 0 0 0 0 0 0 0 0 0 0 0 0 0 0 0 0 0 0 0 0 0 0 0 0 0 0 0 0 0 0 0 0 0 0 0 0 0 0 0 0 0 0 0 0 0 0 0 0 0 0 0 0 0 0 1422 1422 1422 1422 1416 1416 1416 1416 1416 1416 1416 1429 1436 1436 1443 1450 1456 1471 1478 1485 1492 1492 1500 1500 1500 1507 1507 1514 1514 1522 1530 1530 1537 1537 1545 1553 1553 1577 0 0 0 0 0 0 0 0 2342 2342 2342 2342 2342 2342 2342 2342 2324 2324 2324 2306 2306 2289 2289 2272 2272 2272 2255 2255 2255 2255 2255 2255 2255 2255 2255 2255 2255 2238 2222 2206 2206 2206 2206 2222 2238 2238 2238 2238 2238 2222 2206 2206 2190 2144 2057 2043 2003 1990 1977 1964 1964 1964 1951 1951 1951 1951 1951 1951 1951 1951 1951 1951 1939 1939 1939 1939 1939 1939 1939 1939 1927 1927 1927 1927 1927 1927 1927 1927 1927 1939 1939 1939 1939 1939 1939 1939 1939 1939 1939 1939 1939 1939 1939 1939 1939 1939 1939 1927 1927 1915 1903 1903 1891 1891 1891 1903 1903 1903 1903 1903 1903 1903 1903 1915 1915 1915 1915 1915 1915 1915 1915 1915 1915 1903 1903 1903 1903 1903 1891 1891 1891 1891 1891 1891 1891 1891 1891 1891 1891 1903 1903 1915 1915 1927 0 0 0 0 0 0 0 0 0 0 0 0 0 0 0 0 0 0 0 0 0 0 0 0 0 0 0 0 0 0 0 0 0 0 0 0 0 0 0 0 0 0 0 0 0 0 3954 3954 3903 3903 3903 3854 3854 3854 3854 3854 3854 3854 3854 3806 3806 3806 3806 3806 3806 3806 3806 3854 3854 3854 3854 3854 3903 3903 3903 3903 3903 3903 3903 3903 3903 3854 3806 3806 3806 3806 0 0 0 0 0 0 0 0 0 0 0 0 0 0 0 0 0 0 0 0 0 0 0 0 0 0 0 0 0 0 0 0 4544 4477 4477 4477 4477 4477 4477 4544 0 0 0 0 0 0 0 0 0 0 0 0 0 0 0 0 0 0 0 0 0 0 0 0 0 0 0 0 0 0 0 0 0 0 0 0 0 0 0 0 0 0 0 0 0 0 0 0 0 0 0 0 0 0 0 0 0 0 0 0 0 0 0 0 0 0 0 0 0 0 0 0 0 0 0 0 0 0 0 0 0 0 0 0 0 0 0 0 0 0 0 0 0 0 0 0 0 0 0 0 0 0 0 0 0 0
0 0 0 0 0 0 0 0 0 0 0 0 0 0 0 0 0 0 0 0 0 0 0 0 0 0 0 0 0 0 0 0 0 0 0 0 0 0 0 0 0 0 0 0 0 0 0 0 0 0 0 0 0 0 0 0 2342 2342 2324 2342 2342 2342 2342 2342 2342 2342 2342 2342 2324 2324 2306 2272 2222 2175 2144 2114 2100 2100 2071 2071 2071 2071 2057 2057 2057 2057 2057 2057 2057 2057 2057 2057 2057 2057 2057 2057 2057 2057 2057 2057 2057 2057 2057 2057 2057 2057 2071 2085 0 0 0 0 0 0 0 0 0 0 0 0 0 0 0 0 0 0 0 0 0 0 0 0 0 0 0 0 0 0 0 0 0 0 0 0 0 0 0 0 0 0 0 0 0 0 0 0 0 0 0 0 0 0 0 0 0 0 0 0 0 0 0 0 0 0 0 0 0 0 0 0 0 0 0 0 0 0 0 0 0 0 0 0 0 0 0 0 0 0 0 0 0 0 0 0 0 0 0 0 0 0 0 0 0 0 0 0 1422 1422 1416 1416 1416 1416 1416 1416 1416 1416 1416 1422 1436 1436 1443 1450 1456 1463 1478 1485 1492 1492 1500 1500 1500 1507 1507 1514 1514 1522 1530 1537 1537 1537 1545 1553 1553 1585 0 0 0 0 0 0 0 2324 2324 2324 2324 2324 2342 2342 2342 2342 2324 2324 2324 2324 2306 2306 2289 2289 2289 2289 2289 2272 2272 2272 2272 2272 2272 2272 2272 2272 2272 2272 2255 2255 2255 2238 2238 2238 2255 2255 2255 2238 2238 2222 2222 2206 2190 2175 2085 2043 2003 1990 1977 1964 1964 1964 1951 1951 1951 1951 1951 1951 1951 1951 1951 1951 1951 1939 1939 1939 1939 1939 1939 1939 1939 1927 1927 1927 1927 1927 1927 1927 1927 1939 1939 1939 1939 1939 1939 1939 1939 1939 1939 1939 1939 1939 1939 1939 1939 1939 1939 1939 1927 1915 1915 1903 1903 1891 1903 1903 1903 1903 1903 1903 1903 1903 1903 1903 1903 1903 1903 1915 1915 1915 1915 1915 1903 1903 1903 1903 1903 1903 1891 1891 1891 1891 1891 1891 1891 1891 1891 1903 1903 1903 1915 1915 1915 1927 0 0 0 0 0 0 0 0 0 0 0 0 0 0 0 0 0 0 0 0 0 0 0 0 0 0 0 0 0 0 0 0 0 0 0 0 0 0 0 0 0 0 0 0 0 0 0 3954 3903 3903 3903 3854 3854 3854 3854 3854 3854 3806 3806 3806 3806 3759 3759 3759 3759 3806 3806 3806 3854 3854 3854 3854 3903 3903 3903 3903 3903 3903 3903 3903 3854 3854 3806 3806 3806 3806 3806 0 0 0 0 0 0 0 0 0 0 0 0 0 0 0 0 0 0 0 0 0 0 0 0 0 0 0 0 0 0 0 0 4477 4477 4477 4477 4477 4477 4613 0 0 0 0 0 0 0 0 0 0 0 0 0 0 0 0 0 0 0 0 0 0 0 0 0 0 0 0 0 0 0 0 0 0 0 0 0 0 0 0 0 0 0 0 0 0 0 0 0 0 0 0 0 0 0 0 0 0 0 0 0 0 0 0 0 0 0 0 0 0 0 0 0 0 0 0 0 0 0 0 0 0 0 0 0 0 0 0 0 0 0 0 0 0 0 0 0 0 0 0 0 0 0 0 0 0
0 0 0 0 0 0 0 0 0 0 0 0 0 0 0 0 0 0 0 0 0 0 0 0 0 0 0 0 0 0 0 0 0 0 0 0 0 0 0 0 0 0 0 0 0 0 0 0 0 0 0 0 0 0 0 0 2360 2342 2342 2342 2342 2360 2360 2360 2360 2342 2342 2342 2324 2324 2289 2255 2206 2175 2129 2114 2100 2100 2085 2071 2071 2071 2071 2071 2057 2057 2057 2057 2057 2057 2057 2057 2057 2057 2057 2057 2057 2057 2057 2057 2057 2057 2057 2057 2057 2057 2071 0 0 0 0 0 0 0 0 0 0 0 0 0 0 0 0 0 0 0 0 0 0 0 0 0 0 0 0 0 0 0 0 0 0 0 0 0 0 0 0 0 0 0 0 0 0 0 0 0 0 0 0 0 0 0 0 0 0 0 0 0 0 0 0 0 0 0 0 0 0 0 0 0 0 0 0 0 0 0 0 0 0 0 0 0 0 0 0 0 0 0 0 0 0 0 0 0 0 0 0 0 0 0 0 0 0 0 0 0 1429 1416 1416 1416 1416 1416 1416 1416 1416 1416 1416 1422 1429 1436 1436 1443 1450 1456 1471 1485 1485 1492 1500 1500 1500 1507 1507 1514 1514 1522 1530 1537 1537 1545 1545 1545 1553 0 0 0 0 0 0 0 2306 2306 2306 2306 2324 2324 2324 2324 2342 2324 2324 2324 2324 2324 2306 2306 2289 2289 2289 2289 2289 2289 2289 2272 2272 2272 2272 2272 2272 2272 2272 2272 2272 2255 2255 2255 2255 2272 2272 2272 2272 2255 2238 2238 2222 2206 2206 2175 2100 2043 2016 1990 1977 1964 1964 1951 1951 1951 1951 1951 1951 1951 1951 1951 1951 1951 1951 1951 1939 1939 1939 1939 1939 1939 1939 1939 1927 1927 1927 1927 1927 1927 1927 1939 1939 1939 1939 1939 1939 1939 1939 1939 1939 1939 1939 1939 1939 1939 1939 1939 1939 1939 1927 1915 1915 1915 1903 1903 1903 1903 1903 1903 1903 1903 1903 1903 1903 1903 1903 1903 1903 1903 1903 1903 1903 1903 1903 1903 1903 1903 1903 1891 1891 1891 1891 1891 1891 1891 1891 1903 1903 1903 1903 1915 1915 1915 1927 1927 0 0 0 0 0 0 0 0 0 0 0 0 0 0 0 0 0 0 0 0 0 0 0 0 0 0 0 0 0 0 0 0 0 0 0 0 0 0 0 0 0 0 0 0 0 0 0 3954 3954 3903 3903 3854 3854 3854 3854 3806 3806 3806 3806 3806 3806 3759 3759 3759 3759 3759 3806 3806 3806 3854 3854 3854 3903 3903 3903 3903 3903 3903 3903 3903 3854 3854 3806 3759 3759 3759 3806 0 0 0 0 0 0 0 0 0 0 0 0 0 0 0 0 0 0 0 0 0 0 0 0 0 0 0 0 0 0 0 0 4613 4477 4477 4477 4477 4477 4544 0 0 0 0 0 0 0 0 0 0 0 0 0 0 0 0 0 0 0 0 0 0 0 0 0 0 0 0 0 0 0 0 0 0 0 0 0 0 0 0 0 0 0 0 0 0 0 0 0 0 0 0 0 0 0 0 0 0 0 0 0 0 0 0 0 0 0 0 0 0 0 0 0 0 0 0 0 0 0 0 0 0 0 0 0 0 0 0 0 0 0 0 0 0 0 0 0 0 0 0 0 0 0 0 0 0
0 0 0 0 0 0 0 0 0 0 0 0 0 0 0 0 0 0 0 0 0 0 0 0 0 0 0 0 0 0 0 0 0 0 0 0 0 0 0 0 0 0 0 0 0 0 0 0 0 0 0 0 0 0 0 0 2378 2360 2342 2342 2360 2360 2360 2360 2360 2360 2360 2342 2324 2306 2289 2238 2190 2159 2129 2114 2100 2100 2085 2071 2071 2071 2071 2071 2071 2057 2057 2057 2057 2057 2057 2057 2057 2057 2057 2057 2057 2057 2057 2057 2057 2057 2057 2057 2057 2057 2071 0 0 0 0 0 0 0 0 0 0 0 0 0 0 0 0 0 0 0 0 0 0 0 0 0 0 0 0 0 0 0 0 0 0 0 0 0 0 0 0 0 0 0 0 0 0 0 0 0 0 0 0 0 0 0 0 0 0 0 0 0 0 0 0 0 0 0 0 0 0 0 0 0 0 0 0 0 0 0 0 0 0 0 0 0 0 0 0 0 0 0 0 0 0 0 0 0 0 0 0 0 0 0 0 0 0 0 0 0 0 1422 1422 1416 1416 1416 1416 1416 1416 1416 1416 1422 1429 1429 1436 1443 1450 1456 1463 1478 1485 1492 1492 1500 1500 1507 1507 1514 1514 1522 1530 1537 1537 1545 1545 1545 1553 0 0 0 0 0 0 2306 2306 2306 2306 2306 2306 2324 2324 2324 2324 2324 2324 2324 2324 2324 2306 2306 2306 2306 2289 2289 2289 2289 2289 2272 2272 2272 2272 2272 2272 2272 2272 2272 2272 2272 2272 2272 2272 2272 2272 2272 2272 2272 2255 2238 2222 2222 2206 2190 2100 2057 2016 1990 1977 1964 1964 1951 1951 1951 1951 1951 1951 1951 1951 1951 1951 1951 1951 1951 1951 1939 1939 1939 1939 1939 1939 1939 1939 1927 1927 1927 1927 1927 1927 1939 1939 1939 1939 1939 1939 1939 1939 1939 1939 1939 1939 1939 1939 1939 1939 1939 1939 1927 1927 1915 1915 1915 1903 1903 1903 1903 1903 1903 1903 1903 1903 1903 1903 1903 1903 1903 1903 1903 1903 1903 1903 1903 1903 1903 1891 1891 1891 1891 1891 1891 1891 1891 1891 1891 1891 1903 1903 1903 1903 1915 1915 1915 1927 1939 0 0 0 0 0 0 0 0 0 0 0 0 0 0 0 0 0 0 0 0 0 0 0 0 0 0 0 0 0 0 0 0 0 0 0 0 0 0 0 0 0 0 0 0 0 0 0 0 3954 3903 3903 3854 3854 3854 3854 3806 3806 3806 3806 3806 3759 3759 3759 3759 3759 3759 3759 3806 3806 3806 3854 3854 3903 3903 3903 3903 3903 3903 3903 3903 3854 3806 3806 3759 3759 3759 0 0 0 0 0 0 0 0 0 0 0 0 0 0 0 0 0 0 0 0 0 0 0 0 0 0 0 0 0 0 0 0 0 0 4544 4477 4477 4477 4477 4544 0 0 0 0 0 0 0 0 0 0 0 0 0 0 0 0 0 0 0 0 0 0 0 0 0 0 0 0 0 0 0 0 0 0 0 0 0 0 0 0 0 0 0 0 0 0 0 0 0 0 0 0 0 0 0 0 0 0 0 0 0 0 0 0 0 0 0 0 0 0 0 0 0 0 0 0 0 0 0 0 0 0 0 0 0 0 0 0 0 0 0 0 0 0 0 0 0 0 0 0 0 0 0 0 0 0
0 0 0 0 0 0 0 0 0 0 0 0 0 0 0 0 0 0 0 0 0 0 0 0 0 0 0 0 0 0 0 0 0 0 0 0 0 0 0 0 0 0 0 0 0 0 0 0 0 0 0 0 0 0 0 0 2416 2378 2360 2360 2360 2360 2360 2360 2360 2360 2360 2342 2324 2306 2272 2222 2190 2159 2129 2114 2100 2100 2085 2071 2071 2071 2071 2071 2071 2071 2057 2057 2057 2057 2057 2057 2057 2057 2057 2043 2043 2043 2043 2057 2057 2057 2057 2057 2057 2057 2071 0 0 0 0 0 0 0 0 0 0 0 0 0 0 0 0 0 0 0 0 0 0 0 0 0 0 0 0 0 0 0 0 0 0 0 0 0 0 0 0 0 0 0 0 0 0 0 0 0 0 0 0 0 0 0 0 0 0 0 0 0 0 0 0 0 0 0 0 0 0 0 0 0 0 0 0 0 0 0 0 0 0 0 0 0 0 0 0 0 0 0 0 0 0 0 0 0 0 0 0 0 0 0 0 0 0 0 0 0 0 0 1422 1416 1416 1416 1416 1416 1416 1416 1422 1422 1429 1429 1436 1436 1443 1456 1463 1471 1485 1492 1492 1500 1500 1507 1507 1514 1514 1522 1537 1537 1537 1545 1545 1545 1553 0 0 0 0 0 0 2306 2289 2289 2289 2306 2306 2306 2324 2324 2324 2324 2324 2324 2324 2324 2306 2306 2306 2306 2306 2289 2289 2289 2289 2289 2289 2289 2289 2289 2289 2289 2272 2272 2272 2272 2272 2272 2272 2272 2272 2272 2272 2272 2272 2255 2222 2222 2206 2190 2114 2057 2016 1990 1977 1964 1964 1951 1951 1951 1951 1951 1951 1951 1951 1951 1951 1951 1951 1951 1951 1951 1951 1951 1939 1939 1939 1939 1939 1939 1927 1927 1927 1927 1927 1939 1939 1939 1939 1939 1939 1939 1939 1939 1939 1939 1939 1939 1939 1939 1939 1939 1927 1927 1927 1915 1915 1915 1903 1903 1903 1903 1903 1903 1903 1903 1903 1903 1903 1903 1903 1903 1903 1903 1903 1903 1903 1903 1903 1891 1891 1891 1891 1891 1891 1891 1891 1891 1891 1903 1903 1903 1903 1903 1915 1915 1915 1915 1927 1939 0 0 0 0 0 0 0 0 0 0 0 0 0 0 0 0 0 0 0 0 0 0 0 0 0 0 0 0 0 0 0 0 0 0 0 0 0 0 0 0 0 0 0 0 0 0 0 0 3954 3903 3903 3854 3854 3854 3806 3806 3806 3806 3806 3759 3759 3759 3759 3759 3759 3759 3759 3806 3806 3806 3854 3854 3903 3903 3903 3903 3903 3903 3903 3854 3854 3806 3806 3759 3759 3806 0 0 0 0 0 0 0 0 0 0 0 0 0 0 0 0 0 0 0 0 0 0 0 0 0 0 0 0 0 0 0 0 0 0 4613 4477 4477 4477 4477 4544 0 0 0 0 0 0 0 0 0 0 0 0 0 0 0 0 0 0 0 0 0 0 0 0 0 0 0 0 0 0 0 0 0 0 0 0 0 0 0 0 0 0 0 0 0 0 0 0 0 0 0 0 0 0 0 0 0 0 0 0 0 0 0 0 0 0 0 0 0 0 0 0 0 0 0 0 0 0 0 0 0 0 0 0 0 0 0 0 0 0 0 0 0 0 0 0 0 0 0 0 0 0 0 0 0 0
0 0 0 0 0 0 0 0 0 0 0 0 0 0 0 0 0 0 0 0 0 0 0 0 0 0 0 0 0 0 0 0 0 0 0 0 0 0 0 0 0 0 0 0 0 0 0 0 0 0 0 0 0 0 0 0 2416 2397 2378 2378 2378 2378 2378 2378 2360 2360 2360 2324 2306 2289 2255 2206 2175 2159 2129 2114 2100 2100 2085 2085 2071 2071 2071 2071 2071 2071 2071 2071 2057 2057 2057 2057 2057 2057 2043 2043 2043 2043 2043 2043 2057 2057 2057 2057 2057 2057 2071 0 0 0 0 0 0 0 0 0 0 0 0 0 0 0 0 0 0 0 0 0 0 0 0 0 0 0 0 0 0 0 0 0 0 0 0 0 0 0 0 0 0 0 0 0 0 0 0 0 0 0 0 0 0 0 0 0 0 0 0 0 0 0 0 0 0 0 0 0 0 0 0 0 0 0 0 0 0 0 0 0 0 0 0 0 0 0 0 0 0 0 0 0 0 0 0 0 0 0 0 0 0 0 0 0 0 0 0 0 0 0 1422 1416 1416 1416 1416 1416 1416 1422 1422 1422 1429 1429 1429 1436 1443 1450 1456 1471 1485 1492 1492 1500 1500 1507 1507 1514 1514 1522 1537 1537 1537 1545 1545 1545 1553 0 0 0 0 0 0 2306 2289 2289 2289 2306 2306 2306 2324 2324 2324 2324 2324 2324 2324 2324 2306 2306 2306 2306 2306 2306 2289 2289 2289 2289 2289 2289 2289 2289 2289 2289 2272 2272 2272 2272 2272 2272 2272 2272 2272 2272 2272 2272 2272 2255 2222 2206 2190 2190 2114 2057 2016 1990 1977 1964 1964 1951 1951 1951 1951 1951 1951 1951 1951 1951 1951 1951 1951 1951 1951 1951 1951 1951 1951 1939 1939 1939 1939 1939 1927 1927 1927 1927 1927 1939 1939 1939 1939 1939 1939 1939 1939 1939 1939 1939 1939 1939 1927 1927 1927 1927 1927 1927 1915 1915 1915 1915 1903 1903 1903 1903 1903 1903 1903 1903 1903 1903 1903 1903 1903 1891 1891 1891 1891 1891 1891 1891 1891 1891 1891 1891 1891 1891 1891 1891 1891 1891 1891 1903 1903 1903 1903 1915 1915 1915 1915 1915 1927 0 0 0 0 0 0 0 0 0 0 0 0 0 0 0 0 0 0 0 0 0 0 0 0 0 0 0 0 0 0 0 0 0 0 0 0 0 0 0 0 0 0 0 0 0 0 0 0 0 0 3903 3903 3903 3854 3854 3806 3806 3806 3806 3806 3759 3759 3759 3759 3759 3759 3759 3759 3806 3806 3806 3854 3854 3854 3903 3903 3903 3903 3903 3903 3854 3806 3806 3806 3759 3759 3806 0 0 0 0 0 0 0 0 0 0 0 0 0 0 0 0 0 0 0 0 0 0 0 0 0 0 0 0 0 0 0 0 0 0 0 4613 4477 4477 4477 4613 0 0 0 0 0 0 0 0 0 0 0 0 0 0 0 0 0 0 0 0 0 0 0 0 0 0 0 0 0 0 0 0 0 0 0 0 0 0 0 0 0 0 0 0 0 0 0 0 0 0 0 0 0 0 0 0 0 0 0 0 0 0 0 0 0 0 0 0 0 0 0 0 0 0 0 0 0 0 0 0 0 0 0 0 0 0 0 0 0 0 0 0 0 0 0 0 0 0 0 0 0 0 0 0 0 0
0 0 0 0 0 0 0 0 0 0 0 0 0 0 0 0 0 0 0 0 0 0 0 0 0 0 0 0 0 0 0 0 0 0 0 0 0 0 0 0 0 0 0 0 0 0 0 0 0 0 0 0 0 0 0 0 2436 2416 2397 2397 2378 2378 2378 2378 2378 2378 2360 2324 2306 2289 2255 2206 2175 2159 2129 2100 2100 2100 2085 2085 2085 2071 2071 2071 2071 2071 2071 2071 2057 2057 2057 2057 2057 2043 2043 2043 2043 2043 2043 2043 2057 2057 2057 2057 2057 2057 2071 0 0 0 0 0 0 0 0 0 0 0 0 0 0 0 0 0 0 0 0 0 0 0 0 0 0 0 0 0 0 0 0 0 0 0 0 0 0 0 0 0 0 0 0 0 0 0 0 0 0 0 0 0 0 0 0 0 0 0 0 0 0 0 0 0 0 0 0 0 0 0 0 0 0 0 0 0 0 0 0 0 0 0 0 0 0 0 0 0 0 0 0 0 0 0 0 0 0 0 0 0 0 0 0 0 0 0 0 0 0 0 1422 1416 1416 1416 1416 1416 1422 1422 1422 1422 1429 1429 1429 1436 1443 1450 1456 1471 1485 1492 1492 1500 1500 1500 1507 1514 1514 1522 1530 1537 1537 1545 1545 1545 1545 0 0 0 0 0 0 2306 2289 2289 2289 2289 2306 2306 2306 2324 2324 2324 2324 2324 2324 2324 2306 2306 2306 2306 2306 2306 2306 2289 2289 2289 2289 2289 2289 2289 2289 2289 2289 2272 2272 2272 2272 2272 2272 2272 2272 2272 2272 2272 2255 2238 2222 2206 2190 2190 2114 2057 2016 1990 1977 1964 1964 1951 1951 1951 1951 1951 1951 1951 1951 1951 1951 1951 1951 1951 1951 1951 1951 1951 1951 1951 1939 1939 1939 1939 1939 1927 1927 1927 1927 1939 1939 1939 1939 1939 1939 1939 1939 1939 1939 1939 1927 1927 1927 1927 1927 1927 1927 1915 1915 1915 1915 1915 1903 1903 1903 1903 1903 1903 1903 1903 1903 1903 1903 1891 1891 1891 1891 1891 1891 1891 1891 1891 1891 1891 1891 1891 1891 1891 1891 1891 1891 1891 1891 1903 1903 1903 1903 1915 1915 1915 1915 1927 1927 0 0 0 0 0 0 0 0 0 0 0 0 0 0 0 0 0 0 0 0 0 0 0 0 0 0 0 0 0 0 0 0 0 0 0 0 0 0 0 0 0 0 0 0 0 0 0 0 0 0 3954 3903 3903 3854 3854 3806 3806 3806 3806 3759 3759 3759 3759 3759 3759 3759 3759 3759 3806 3806 3806 3806 3854 3854 3903 3903 3903 3903 3903 3854 3854 3806 3806 3759 3759 3759 0 0 0 0 0 0 0 0 0 0 0 0 0 0 0 0 0 0 0 0 0 0 0 0 0 0 0 0 0 0 0 0 0 0 0 0 4477 4477 4477 4477 4544 0 0 0 0 0 0 0 0 0 0 0 0 0 0 0 0 0 0 0 0 0 0 0 0 0 0 0 0 0 0 0 0 0 0 0 0 0 0 0 0 0 0 0 0 0 0 0 0 0 0 0 0 0 0 0 0 0 0 0 0 0 0 0 0 0 0 0 0 0 0 0 0 0 0 0 0 0 0 0 0 0 0 0 0 0 0 0 0 0 0 0 0 0 0 0 0 0 0 0 0 0 0 0 0 0 0
0 0 0 0 0 0 0 0 0 0 0 0 0 0 0 0 0 0 0 0 0 0 0 0 0 0 0 0 0 0 0 0 0 0 0 0 0 0 0 0 0 0 0 0 0 0 0 0 0 0 0 0 0 0 0 0 2436 2416 2397 2397 2378 2397 2378 2378 2378 2378 2360 2324 2306 2289 2255 2206 2175 2144 2114 2100 2100 2085 2085 2085 2085 2085 2085 2085 2071 2071 2071 2071 2071 2057 2057 2057 2057 2043 2043 2043 2043 2043 2043 2043 2057 2057 2057 2057 2057 2057 2071 0 0 0 0 0 0 0 0 0 0 0 0 0 0 0 0 0 0 0 0 0 0 0 0 0 0 0 0 0 0 0 0 0 0 0 0 0 0 0 0 0 0 0 0 0 0 0 0 0 0 0 0 0 0 0 0 0 0 0 0 0 0 0 0 0 0 0 0 0 0 0 0 0 0 0 0 0 0 0 0 0 0 0 0 0 0 0 0 0 0 0 0 0 0 0 0 0 0 0 0 0 0 0 0 0 0 0 0 0 0 0 1422 1416 1416 1416 1416 1416 1422 1422 1422 1422 1429 1429 1429 1436 1436 1450 1456 1471 1478 1492 1492 1500 1500 1500 1507 1507 1514 1522 1530 1537 1537 1545 1545 1545 1545 1553 0 0 0 0 0 2289 2289 2272 2272 2289 2289 2289 2306 2306 2324 2324 2324 2324 2324 2324 2306 2306 2306 2306 2306 2306 2306 2289 2289 2289 2289 2289 2289 2289 2289 2289 2289 2272 2272 2272 2272 2272 2272 2272 2272 2272 2272 2272 2255 2238 2222 2206 2190 2190 2114 2057 2016 1990 1977 1964 1964 1951 1951 1951 1951 1951 1951 1951 1951 1951 1951 1951 1951 1951 1951 1951 1951 1951 1951 1951 1951 1939 1939 1939 1939 1939 1939 1939 1939 1939 1939 1939 1939 1939 1939 1939 1939 1939 1939 1927 1927 1927 1927 1927 1927 1915 1915 1915 1915 1915 1915 1915 1915 1903 1903 1903 1903 1903 1903 1903 1903 1903 1891 1891 1891 1891 1891 1891 1891 1891 1891 1891 1891 1891 1891 1891 1891 1879 1879 1891 1891 1891 1891 1903 1903 1903 1903 1915 1915 1915 1915 1927 1927 0 0 0 0 0 0 0 0 0 0 0 0 0 0 0 0 0 0 0 0 0 0 0 0 0 0 0 0 0 0 0 0 0 0 0 0 0 0 0 0 0 0 0 0 0 0 0 0 0 0 3954 3903 3903 3854 3854 3806 3806 3806 3759 3759 3759 3759 3759 3759 3759 3759 3759 3759 3759 3806 3806 3806 3854 3854 3903 3903 3903 3903 3903 3854 3854 3806 3806 3806 3759 3759 0 0 0 0 0 0 0 0 0 0 0 0 0 0 0 0 0 0 0 0 0 0 0 0 0 0 0 0 0 0 0 0 0 0 0 0 0 4477 4477 4544 0 0 0 0 0 0 0 0 0 0 0 0 0 0 0 0 0 0 0 0 0 0 0 0 0 0 0 0 0 0 0 0 0 0 0 0 0 0 0 0 0 0 0 0 0 0 0 0 0 0 0 0 0 0 0 0 0 0 0 0 0 0 0 0 0 0 0 0 0 0 0 0 0 0 0 0 0 0 0 0 0 0 0 0 0 0 0 0 0 0 0 0 0 0 0 0 0 0 0 0 0 0 0 0 0 0 0
0 0 0 0 0 0 0 0 0 0 0 0 0 0 0 0 0 0 0 0 0 0 0 0 0 0 0 0 0 0 0 0 0 0 0 0 0 0 0 0 0 0 0 0 0 0 0 0 0 0 0 0 0 0 0 0 2436 2416 2397 2397 2397 2397 2397 2378 2378 2378 2378 2324 2324 2289 2238 2190 2159 2144 2114 2100 2100 2085 2085 2085 2085 2085 2085 2085 2085 2071 2071 2071 2071 2071 2057 2057 2057 2043 2043 2043 2043 2043 2043 2043 2057 2057 2057 2057 2057 2057 2071 2085 0 0 0 0 0 0 0 0 0 0 0 0 0 0 0 0 0 0 0 0 0 0 0 0 0 0 0 0 0 0 0 0 0 0 0 0 0 0 0 0 0 0 0 0 0 0 0 0 0 0 0 0 0 0 0 0 0 0 0 0 0 0 0 0 0 0 0 0 0 0 0 0 0 0 0 0 0 0 0 0 0 0 0 0 0 0 0 0 0 0 0 0 0 0 0 0 0 0 0 0 0 0 0 0 0 0 0 0 0 0 1422 1416 1416 1416 1416 1416 1422 1422 1422 1422 1429 1429 1429 1436 1436 1443 1456 1471 1478 1485 1492 1492 1500 1500 1500 1507 1514 1522 1530 1537 1537 1545 1545 1545 1545 1553 0 0 0 0 0 2289 2272 2272 2272 2272 2272 2289 2289 2306 2306 2306 2324 2324 2306 2306 2306 2306 2306 2306 2306 2306 2306 2289 2289 2289 2289 2289 2289 2289 2289 2289 2272 2272 2272 2272 2272 2272 2272 2272 2272 2272 2272 2272 2255 2238 2222 2206 2190 2175 2114 2057 2016 2003 1977 1964 1964 1951 1951 1951 1951 1951 1951 1951 1951 1951 1951 1951 1951 1951 1951 1951 1951 1951 1951 1951 1951 1951 1939 1939 1939 1939 1939 1939 1939 1939 1939 1939 1939 1939 1939 1939 1939 1927 1927 1927 1927 1927 1927 1915 1915 1915 1915 1915 1915 1915 1915 1915 1915 1903 1903 1903 1903 1903 1903 1903 1903 1903 1891 1891 1891 1891 1891 1891 1891 1891 1891 1891 1891 1891 1891 1879 1879 1879 1879 1891 1891 1891 1891 1903 1903 1903 1903 1915 1915 1915 1915 1927 1939 0 0 0 0 0 0 0 0 0 0 0 0 0 0 0 0 0 0 0 0 0 0 0 0 0 0 0 0 0 0 0 0 0 0 0 0 0 0 0 0 0 0 0 0 0 0 0 0 0 0 4006 3954 3903 3903 3854 3806 3806 3806 3806 3759 3759 3759 3759 3759 3759 3759 3759 3759 3806 3806 3806 3806 3806 3854 3903 3903 3903 3903 3854 3854 3854 3806 3806 3806 3806 3806 0 0 0 0 0 0 0 0 0 0 0 0 0 0 0 0 0 0 0 0 0 0 0 0 0 0 0 0 0 0 0 0 0 0 0 0 0 0 0 0 0 0 0 0 0 0 0 0 0 0 0 0 0 0 0 0 0 0 0 0 0 0 0 0 0 0 0 0 0 0 0 0 0 0 0 0 0 0 0 0 0 0 0 0 0 0 0 0 0 0 0 0 0 0 0 0 0 0 0 0 0 0 0 0 0 0 0 0 0 0 0 0 0 0 0 0 0 0 0 0 0 0 0 0 0 0 0 0 0 0 0 0 0 0 0 0 0 0 0 0 0 0 0 0 0 0 0
0 0 0 0 0 0 0 0 0 0 0 0 0 0 0 0 0 0 0 0 0 0 0 0 0 0 0 0 0 0 0 0 0 0 0 0 0 0 0 0 0 0 0 0 0 0 0 0 0 0 0 0 0 0 0 0 2416 2416 2397 2397 2397 2397 2397 2378 2378 2378 2378 2342 2324 2255 2222 2190 2159 2129 2100 2100 2085 2085 2085 2085 2085 2085 2085 2085 2085 2085 2071 2071 2071 2071 2071 2057 2057 2057 2043 2043 2043 2043 2043 2057 2057 2057 2057 2057 2057 2071 2071 2085 0 0 0 0 0 0 0 0 0 0 0 0 0 0 0 0 0 0 0 0 0 0 0 0 0 0 0 0 0 0 0 0 0 0 0 0 0 0 0 0 0 0 0 0 0 0 0 0 0 0 0 0 0 0 0 0 0 0 0 0 0 0 0 0 0 0 0 0 0 0 0 0 0 0 0 0 0 0 0 0 0 0 0 0 0 0 0 0 0 0 0 0 0 0 0 0 0 0 0 0 0 0 0 0 0 0 0 0 0 0 0 1422 1422 1422 1422 1422 1422 1422 1422 1422 1422 1429 1429 1429 1436 1443 1456 1463 1478 1485 1492 1492 1500 1500 1500 1507 1514 1522 1530 1537 1537 1537 1545 1545 1545 1553 1553 0 0 0 0 0 2272 2255 2255 2255 2272 2272 2289 2289 2306 2306 2306 2306 2306 2306 2306 2306 2306 2306 2306 2306 2306 2306 2289 2289 2289 2289 2289 2289 2289 2272 2272 2272 2272 2272 2272 2272 2272 2272 2272 2272 2272 2255 2255 2238 2222 2206 2190 2175 2114 2057 2016 2003 1990 1964 1964 1951 1951 1951 1951 1951 1951 1951 1951 1951 1951 1951 1951 1964 1964 1964 1951 1951 1951 1951 1951 1951 1939 1939 1939 1939 1939 1939 1939 1939 1939 1939 1939 1939 1939 1939 1939 1927 1927 1927 1927 1927 1915 1915 1915 1915 1915 1915 1915 1915 1915 1915 1915 1915 1903 1903 1903 1903 1903 1903 1903 1891 1891 1891 1891 1891 1891 1891 1891 1891 1891 1891 1891 1891 1891 1879 1879 1879 1879 1891 1891 1891 1891 1903 1903 1903 1903 1915 1915 1915 1915 1927 1927 0 0 0 0 0 0 0 0 0 0 0 0 0 0 0 0 0 0 0 0 0 0 0 0 0 0 0 0 0 0 0 0 0 0 0 0 0 0 0 0 0 0 0 0 0 0 0 0 0 0 4006 3954 3954 3903 3854 3806 3806 3806 3806 3759 3759 3759 3759 3759 3759 3759 3759 3759 3806 3806 3806 3806 3806 3854 3854 3854 3854 3854 3854 3854 3854 3806 3806 3806 3806 3854 0 0 0 0 0 0 0 0 0 0 0 0 0 0 0 0 0 0 0 0 0 0 0 0 0 0 0 0 0 0 0 0 0 0 0 0 0 0 0 0 0 0 0 0 0 0 0 0 0 0 0 0 0 0 0 0 0 0 0 0 0 0 0 0 0 0 0 0 0 0 0 0 0 0 0 0 0 0 0 0 0 0 0 0 0 0 0 0 0 0 0 0 0 0 0 0 0 0 0 0 0 0 0 0 0 0 0 0 0 0 0 0 0 0 0 0 0 0 0 0 0 0 0 0 0 0 0 0 0 0 0 0 0 0 0 0 0 0 0 0 0 0 0 0 0 0 0
0 0 0 0 0 0 0 0 0 0 0 0 0 0 0 0 0 0 0 0 0 0 0 0 0 0 0 0 0 0 0 0 0 0 0 0 0 0 0 0 0 0 0 0 0 0 0 0 0 0 0 0 0 0 0 0 2416 2397 2397 2397 2378 2378 2378 2378 2378 2378 2378 2342 2324 2255 2206 2190 2159 2129 2100 2100 2085 2085 2085 2085 2085 2085 2085 2085 2085 2085 2085 2071 2071 2071 2071 2071 2057 2057 2057 2057 2057 2057 2057 2057 2057 2057 2057 2057 2057 2071 2071 2085 0 0 0 0 0 0 0 0 0 0 0 0 0 0 0 0 0 0 0 0 0 0 0 0 0 0 0 0 0 0 0 0 0 0 0 0 0 0 0 0 0 0 0 0 0 0 0 0 0 0 0 0 0 0 0 0 0 0 0 0 0 0 0 0 0 0 0 0 0 0 0 0 0 0 0 0 0 0 0 0 0 0 0 0 0 0 0 0 0 0 0 0 0 0 0 0 0 0 0 0 0 0 0 0 0 0 0 0 0 0 0 1429 1422 1422 1422 1422 1422 1416 1422 1422 1422 1429 1429 1429 1436 1443 1450 1463 1478 1485 1485 1492 1492 1500 1500 1507 1507 1514 1530 1537 1537 1545 1545 1545 1553 1553 1553 0 0 0 0 0 2272 2255 2255 2255 2255 2255 2272 2272 2289 2289 2306 2306 2306 2306 2306 2306 2306 2306 2306 2306 2306 2306 2289 2289 2289 2289 2289 2289 2289 2272 2272 2272 2272 2272 2272 2272 2272 2272 2272 2272 2255 2255 2255 2222 2222 2206 2190 2175 2114 2057 2030 2003 1990 1977 1964 1951 1951 1951 1951 1951 1951 1951 1951 1951 1951 1964 1964 1964 1964 1964 1951 1951 1951 1951 1951 1951 1951 1939 1939 1939 1939 1939 1939 1939 1939 1939 1939 1939 1939 1939 1939 1927 1927 1927 1927 1927 1915 1915 1915 1915 1915 1915 1915 1915 1915 1915 1915 1915 1903 1903 1903 1903 1903 1903 1903 1891 1891 1891 1891 1891 1891 1891 1891 1891 1891 1891 1891 1891 1891 1879 1879 1879 1879 1879 1891 1891 1891 1903 1903 1903 1903 1915 1915 1915 1915 1915 1927 1939 0 0 0 0 0 0 0 0 0 0 0 0 0 0 0 0 0 0 0 0 0 0 0 0 0 0 0 0 0 0 0 0 0 0 0 0 0 0 0 0 0 0 0 0 0 0 0 0 0 4006 3954 3954 3903 3903 3806 3806 3806 3806 3759 3759 3759 3759 3759 3759 3759 3759 3806 3806 3806 3806 3806 3854 3854 3854 3854 3854 3854 3854 3854 3854 3854 3806 3806 3854 3854 0 0 0 0 0 0 0 0 0 0 0 0 0 0 0 0 0 0 0 0 0 0 0 0 0 0 0 0 0 0 0 0 0 0 0 0 0 0 0 0 0 0 0 0 0 0 0 0 0 0 0 0 0 0 0 0 0 0 0 0 0 0 0 0 0 0 0 0 0 0 0 0 0 0 0 0 0 0 0 0 0 0 0 0 0 0 0 0 0 0 0 0 0 0 0 0 0 0 0 0 0 0 0 0 0 0 0 0 0 0 0 0 0 0 0 0 0 0 0 0 0 0 0 0 0 0 0 0 0 0 0 0 0 0 0 0 0 0 0 0 0 0 0 0 0 0 0
